# .PCD v0.7 - Point Cloud Data file format
VERSION 0.7
FIELDS x y z intensity
SIZE 4 4 4 4
TYPE F F F F
COUNT 1 1 1 1
WIDTH 1398
HEIGHT 1
VIEWPOINT 0 0 0 1 0 0 0
POINTS 1398
DATA ascii
0.84105474 3.2947836 0.65293401 60
0.83942878 3.2860205 0.53050977 54
0.84285271 3.2970247 0.41254979 60
0.84278506 3.2943635 0.29356381 62
0.84291625 3.2924831 0.17552398 57
0.84326237 3.2914441 0.058053743 61
0.79854172 3.1056139 -0.84837347 6
0.21471457 0.83444399 -0.18993993 30
0.2041485 0.7928077 -0.15155694 34
0.20425573 0.7926513 -0.12344704 19
0.20411193 0.79152149 -0.095531441 19
0.19998313 0.7749511 -0.066674143 23
0.21182245 0.82023764 -0.042250946 36
0.8501516 3.2896607 -0.058640081 34
0.85124928 3.2915366 0.90010357 51
0.85185695 3.2915163 0.7754944 39
0.85255063 3.2918279 0.65293401 62
0.85213304 3.2878511 0.53129107 46
0.85560244 3.2988665 0.41315827 64
0.8555308 3.2962227 0.29399872 63
0.85440397 3.2895205 0.17552398 61
0.85600418 3.293319 0.058140133 57
0.8081584 3.0981343 -0.84708017 13
0.21885659 0.83840346 -0.19106384 30
0.20691466 0.79209024 -0.15155694 31
0.20702136 0.79193342 -0.12344704 18
0.20687361 0.79080415 -0.095531441 17
0.20268701 0.77424824 -0.066674143 23
0.21594968 0.82432342 -0.042511754 36
0.86289722 3.2915092 -0.058727346 34
0.86395925 3.2932167 0.90139681 57
0.86457849 3.2932355 0.7766183 37
0.86528319 3.2935789 0.65388715 64
0.86486036 3.289633 0.53207237 53
0.8671124 3.2958598 0.41315827 60
0.86703151 3.2932165 0.29399872 58
0.86715347 3.2913463 0.17578478 61
0.86749482 3.2903111 0.058140133 65
0.81279105 3.0719483 -0.84061396 14
0.22178181 0.83763438 -0.19106384 29
0.21093543 0.79610777 -0.15251012 28
0.20978446 0.791206 -0.12344704 16
0.21090554 0.79487407 -0.096139923 17
0.2053884 0.77353603 -0.066674143 22
0.21882579 0.82356459 -0.042511754 35
0.87438148 3.2884769 -0.058727346 35
0.87544942 3.2901809 0.90139681 53
0.87606877 3.2901974 0.7766183 38
0.87803841 3.2952812 0.65484035 60
0.87633801 3.2865939 0.53207237 47
0.87989116 3.2976081 0.41376674 59
0.87980682 3.2949824 0.29443362 61
0.87992615 3.2931232 0.1760456 59
0.88026613 3.2920921 0.058226522 61
0.81975412 3.0550978 -0.83673418 16
0.22596778 0.84156042 -0.19218774 25
0.21371308 0.79536659 -0.15251012 26
0.21382737 0.79523802 -0.12422835 14
0.21238938 0.78934067 -0.095531441 15
0.20808728 0.77281445 -0.066674143 21
0.22169924 0.82279575 -0.042511754 35
0.88715655 3.2902312 -0.058814604 36
0.88818717 3.2917681 0.90269005 55
0.88881838 3.2918231 0.77774227 36
0.88953573 3.2921963 0.65484035 57
0.889094 3.2882822 0.53285366 44
0.8913967 3.2945166 0.41376674 57
0.89260471 3.296699 0.29486853 54
0.89272165 3.2948511 0.17630641 62
0.89306056 3.2938244 0.058312912 59
0.82660949 3.0382366 -0.83285445 16
0.23018387 0.84546751 -0.19331165 21
0.21777835 0.79935151 -0.15346332 24
0.21660197 0.79448676 -0.12422835 11
0.2151434 0.78859448 -0.095531441 13
0.21078366 0.7720834 -0.066674143 21
0.22456998 0.82201684 -0.042511754 35
0.8999545 3.2919369 -0.058901869 37
0.90094662 3.2933064 0.90398329 55
0.90158993 3.2933993 0.77886611 36
0.90231895 3.2938049 0.65579355 57
0.90056676 3.2851586 0.53285366 49
0.90420413 3.2961709 0.41437525 53
0.90410691 3.2935631 0.29486853 52
0.90554005 3.29653 0.17656721 64
0.90455276 3.2906868 0.058312912 65
0.83078873 3.0120525 -0.82638818 18
0.23442997 0.84935534 -0.19443557 15
0.22187401 0.80331755 -0.1544165 23
0.22068955 0.79848605 -0.12500966 11
0.21392605 0.77348894 -0.093705997 9
0.21347745 0.77134287 -0.066674143 22
0.227438 0.82122791 -0.042511754 35
0.91277516 3.2935932 -0.05898913 38
0.91372764 3.2947955 0.9052766 56
0.91308051 3.2902319 0.77886611 36
0.91512436 3.2953644 0.65674675 60
0.913351 3.2867537 0.53363502 49
0.91570443 3.2929945 0.41437525 57
0.91693342 3.295186 0.29530343 59
0.91704154 3.2933488 0.17656721 65
0.9173758 3.2923253 0.058399301 63
0.83349496 2.9812255 -0.81862867 3
0.24133126 0.86260748 -0.19780727 9
0.226 0.80726475 -0.1553697 22
0.2261399 0.80722183 -0.1265723 12
nan nan nan 0
0.21616861 0.77059299 -0.066674143 21
0.23030321 0.82042903 -0.042511754 35
0.92561835 3.2951996 -0.059076395 39
0.92653 3.2962356 0.90656978 55
0.9258793 3.2917151 0.77999008 36
0.92662174 3.2921503 0.65674675 64
0.92615718 3.2882988 0.53441632 52
0.92853987 3.2945547 0.41498372 57
0.92978221 3.2967591 0.29573834 59
0.92988801 3.2949328 0.17682803 62
0.92886257 3.289103 0.058399301 65
0.83731282 2.9550631 -0.8121624 5
0.24566989 0.86644709 -0.19893117 7
0.23015623 0.81119287 -0.15632288 24
0.23030508 0.81117833 -0.12735359 14
0.93001276 3.2735071 -0.41254979 48
0.22021925 0.77462488 -0.06710992 21
0.23316565 0.81962013 -0.042511754 35
0.93711519 3.2919488 -0.059076395 39
0.93803036 3.2929811 0.90656978 55
0.93869936 3.2931483 0.78111392 37
0.9394542 3.2936156 0.65769988 64
0.93898541 3.2897952 0.53519762 52
0.94003427 3.2912934 0.41498372 56
0.94128442 3.2934935 0.29573834 62
0.9413839 3.291667 0.17682803 68
0.94171345 3.2906468 0.058485691 58
0.8396253 2.9242687 -0.80440289 5
0.88101667 3.0664098 -0.72716647 25
0.23434263 0.81510174 -0.15727606 23
0.23586601 0.81986153 -0.12891622 15
0.94555259 3.2845485 -0.41437525 65
0.22292185 0.77385139 -0.06710992 23
0.23602524 0.81880116 -0.042511754 35
0.94998598 3.2934611 -0.059163652 40
0.95085883 3.2943275 0.90786308 52
0.95018888 3.2898514 0.78111392 36
0.95230806 3.2950313 0.65865314 61
0.95046318 3.2864974 0.53519762 49
0.95289695 3.2927594 0.41559219 53
0.95416063 3.2949724 0.29617327 54
0.95425797 3.2931569 0.17708884 67
0.9531942 3.2873397 0.058485691 57
0.8444314 2.9027693 -0.79922986 5
0.89716196 3.0820274 -0.73166209 30
0.23718643 0.81427878 -0.15727606 24
0.24287231 0.83325714 -0.13126014 13
0.95701206 3.2812278 -0.41437525 70
0.22701722 0.77785003 -0.067545697 22
0.23748222 0.81317937 -0.042250946 34
0.9614765 3.2901247 -0.059163652 39
0.96370786 3.295624 0.90915632 48
0.96303511 3.2911909 0.78223783 38
0.96518344 3.2963982 0.65960634 60
0.96331793 3.2878988 0.53597891 49
0.96578127 3.2941751 0.41620067 59
0.96705854 3.296401 0.29660815 60
0.96715385 3.2945967 0.17734964 64
0.96664631 3.2886202 0.05857208 66
0.85096663 2.8857572 -0.79535013 5
0.90569437 3.0693727 -0.72941428 38
0.24155925 0.81811142 -0.15822926 24
0.2501227 0.84656984 -0.13360408 10
0.96903199 3.2776983 -0.41437525 68
0.23127969 0.78178906 -0.067981482 16
0.24046105 0.81230354 -0.042250946 26
0.97494888 3.2913718 -0.059250917 34
0.97578049 3.2920697 0.90915632 54
0.97647679 3.29231 0.78336173 41
0.97725886 3.2928386 0.65960634 57
0.97676814 3.2890801 0.53676027 52
0.97784853 3.2906134 0.41620067 54
0.98055369 3.2976093 0.29704309 59
0.9792226 3.2910299 0.17734964 62
0.97811991 3.2852261 0.05857208 58
0.85827005 2.8735135 -0.79276359 5
0.91779822 3.0708606 -0.73053825 44
0.24581988 0.82196569 -0.15918244 17
0.25590795 0.85515422 -0.1351667 13
0.98331463 3.2838042 -0.41559219 67
0.23686656 0.79051977 -0.068853036 12
0.24329509 0.81145924 -0.042250946 15
0.98499531 3.2831607 -0.059163652 13
0.98865467 3.2932692 0.91044956 56
0.98936486 3.2935474 0.78448564 38
0.99015993 3.2941072 0.66055948 59
0.98824322 3.2856505 0.53676027 49
0.99075919 3.2919323 0.41680917 56
0.99349487 3.2989354 0.29747799 52
0.99214512 3.2923725 0.17761046 62
0.99102473 3.2865784 0.058658469 60
0.86270171 2.8520079 -0.78759056 5
0.93133479 3.0769644 -0.73278606 50
0.25011033 0.82580018 -0.16013563 13
0.26175612 0.86370832 -0.13672933 14
0.99621135 3.2851009 -0.41620067 63
0.24251717 0.79922092 -0.06972459 6
0.25047818 0.82493842 -0.043033369 3
0.99354309 3.2701354 -0.05898913 4
1.0001444 3.2897983 0.91044956 59
1.0008554 3.2900739 0.78448564 36
1.0030818 3.2953265 0.66151267 63
1.0011451 3.2869053 0.53754157 49
1.003691 3.2932012 0.41741762 56
1.0050042 3.2954476 0.29747799 56
1.005089 3.2936652 0.17787126 64
1.0039511 3.2878802 0.058744859 62
0.86699373 2.830507 -0.7824176 5
0.93921429 3.0643783 -0.73053825 54
0.25586966 0.83430725 -0.16204201 11
0.26621833 0.86751062 -0.13751063 21
1.0091292 3.2863479 -0.41680917 56
0.24823141 0.80789208 -0.070596151 6
0.25629097 0.83360457 -0.043554984 3
1.0108318 3.2857604 -0.059338178 3
1.0130428 3.2909033 0.91174281 48
1.013768 3.2912161 0.78560954 36
1.0160242 3.2964957 0.66246587 57
1.014068 3.2881098 0.53832287 48
1.0151803 3.2896776 0.41741762 56
1.017971 3.2966788 0.2979129 57
1.018054 3.2949073 0.17813207 64
1.0168983 3.2891319 0.058831248 55
0.85970098 2.7721059 -0.76689857 4
0.95423704 3.0750406 -0.7339099 39
0.26023588 0.8380965 -0.16299519 10
0.27071017 0.87129217 -0.13829194 20
1.0220679 3.287544 -0.41741762 55
0.2540091 0.81653303 -0.071467713 5
0.26513529 0.85177505 -0.044598218 5
nan nan nan 0
1.025961 3.2919579 0.91303611 44
1.0267009 3.2923088 0.78673345 37
1.0289869 3.2976146 0.66341907 57
1.0270113 3.289264 0.53910416 49
1.0281372 3.2908511 0.41802612 57
1.0309585 3.2978592 0.2983478 61
1.0310397 3.2960989 0.17839287 64
1.0298668 3.290333 0.058917638 55
0.84043753 2.6769266 -0.74103355 4
0.94598269 3.0112658 -0.71929914 7
0.2661036 0.84654796 -0.16490158 14
0.27374989 0.87034196 -0.13829194 21
1.0335374 3.2839563 -0.41741762 42
0.25985005 0.82514328 -0.072339267 6
0.27110824 0.86036909 -0.045119837 7
0.25954649 0.82317626 -0.014398235 27
1.0388991 3.2929628 0.91432929 54
1.0381869 3.2887049 0.78673345 36
1.04197 3.2986832 0.66437227 58
1.039975 3.2903681 0.53988552 46
1.0411147 3.2919741 0.41863459 53
1.0439669 3.2989895 0.29878271 55
1.0440464 3.2972403 0.17865369 63
1.0428559 3.2914841 0.059004027 62
0.84977663 2.6739767 -0.74103355 4
0.907767 2.8547277 -0.68221027 5
0.27054513 0.85029113 -0.16585477 21
0.2767863 0.86938113 -0.13829194 20
1.0465007 3.2850575 -0.41802612 42
0.26272878 0.82423121 -0.072339267 7
0.27259257 0.85466033 -0.044859026 8
0.26089841 0.81750274 -0.014310973 26
1.0518566 3.2939172 0.91562259 59
1.0511431 3.2897015 0.78785735 36
1.0534781 3.2950256 0.66437227 57
1.0529592 3.2914217 0.54066682 40
1.0541124 3.2930462 0.41924307 57
1.0569954 3.3000686 0.29921761 55
1.0570735 3.2983308 0.17891449 57
1.0558654 3.2925839 0.059090417 57
0.8798095 2.7353642 -0.75913906 3
0.86250019 2.679944 -0.64062583 6
0.2750161 0.85401362 -0.16680795 23
0.27981931 0.86840963 -0.13829194 21
1.0579613 3.2813847 -0.41802612 40
0.26560426 0.82330906 -0.072339267 11
0.27404037 0.84895194 -0.044598218 10
0.26221389 0.81182981 -0.014223711 15
1.0648333 3.2948213 0.91691583 54
1.064119 3.290648 0.78898126 38
1.0664847 3.2959983 0.66532546 43
1.0674844 3.2971232 0.54222941 48
1.0671303 3.2940679 0.41985154 56
1.0700443 3.3010976 0.29965255 51
1.0685803 3.2946208 0.17891449 58
1.0688956 3.2936335 0.059176806 59
0.89533204 2.7506473 -0.76431209 3
0.85977942 2.6398566 -0.63163459 3
0.27799547 0.85304844 -0.16680795 22
0.28437993 0.87212288 -0.13907325 22
1.0709484 3.2823896 -0.41863459 42
0.2669307 0.81764191 -0.07190349 15
0.27545166 0.84324378 -0.04433741 10
0.26349294 0.80615771 -0.014136449 6
1.0778294 3.295675 0.91820908 49
1.0771142 3.291544 0.79010516 38
1.0795106 3.2969198 0.6662786 56
1.0805244 3.2980697 0.54301071 45
1.0801682 3.2950389 0.42046005 59
1.0831132 3.3020751 0.30008742 66
1.0816312 3.2956147 0.1791753 58
1.0819457 3.294632 0.059263196 63
0.91550463 2.7796173 -0.77336484 3
0.86441422 2.6229575 -0.62826282 3
0.28250858 0.85673422 -0.16776115 21
0.28742248 0.87112486 -0.13907325 23
1.0839554 3.283344 -0.41924307 44
0.26822084 0.8119756 -0.071467713 15
0.27682644 0.8375361 -0.044076603 12
1.0888404 3.2923486 -0.059861749 40
1.090844 3.2964778 0.91950232 53
1.0901287 3.2923892 0.79122907 37
1.092556 3.2977912 0.6672318 59
1.0935844 3.2989659 0.54379207 42
1.093226 3.2959588 0.42106855 60
1.096202 3.3030021 0.30052236 55
1.0947021 3.2965579 0.1794361 58
1.0950159 3.2955794 0.059349585 59
0.92214799 2.7672408 -0.77077836 3
0.87356466 2.6199243 -0.62826282 3
0.28549743 0.85574287 -0.16776115 22
0.29046154 0.87011623 -0.13907325 19
1.0969819 3.2842474 -0.41985154 51
0.26947469 0.80631024 -0.071031928 18
0.27816477 0.83182931 -0.043815792 13
1.1034987 3.2980099 -0.060036272 54
1.1038777 3.2972298 0.92079562 51
1.1031622 3.2931836 0.79235297 37
1.1040608 3.2939572 0.6672318 59
1.1066633 3.2998104 0.54457337 48
1.1063031 3.2968273 0.42167699 53
1.1093104 3.3038771 0.30095726 52
1.1077927 3.2974496 0.17969692 52
1.1081058 3.2964756 0.059435975 46
0.9318018 2.7640047 -0.77077836 3
0.8811475 2.6122427 -0.62713897 4
0.29005241 0.85939163 -0.16871433 21
0.29349703 0.86909705 -0.13907325 19
1.1084394 3.2803984 -0.41985154 44
0.27069232 0.80064613 -0.070596151 15
0.27946666 0.82612342 -0.043554984 13
1.1150042 3.2941377 -0.060036272 67
1.1169297 3.297931 0.9220888 56
1.1162145 3.2939272 0.79347688 38
1.1171281 3.2947316 0.668185 58
1.1181751 3.2959275 0.54457337 45
1.1193997 3.2976451 0.4222855 58
1.1224382 3.3047013 0.30139217 58
1.1192961 3.2935629 0.17969692 51
1.1212153 3.2973206 0.059522364 51
0.94300318 2.7653065 -0.7720716 3
0.88868713 2.6045399 -0.62601501 7
0.29463628 0.86301899 -0.16966751 22
0.29812539 0.87274075 -0.13985457 19
1.1214887 3.2812054 -0.42046005 47
0.27348542 0.79969627 -0.070596151 14
0.28558177 0.83459139 -0.044076603 11
1.1264961 3.2902255 -0.060036272 75
1.13 3.2985814 0.9233821 53
1.1277057 3.2900107 0.79347688 38
1.1302145 3.295455 0.66913819 54
1.1312762 3.2966754 0.54535466 46
1.1325154 3.2984116 0.42289397 51
1.1355853 3.305474 0.3018271 58
1.1324092 3.2943575 0.17995772 49
1.1343441 3.2981143 0.059608754 59
0.95107532 2.7574322 -0.77077836 3
0.89618397 2.5968163 -0.62489116 65
0.30085108 0.87126434 -0.17157389 20
0.30116999 0.87169474 -0.13985457 21
1.1345568 3.281961 -0.42106855 54
0.274647 0.79402947 -0.070160374 11
0.28686026 0.82887077 -0.043815792 8
1.141246 3.2957213 -0.060210798 83
1.1415074 3.2946169 0.9233821 54
1.1407788 3.2906575 0.79460078 40
1.1433194 3.2961268 0.67009133 58
1.1443961 3.2973721 0.54613596 40
1.1456503 3.2991264 0.42350245 50
1.1471167 3.3014898 0.3018271 53
1.1455414 3.2951009 0.18021853 51
1.1474924 3.2988565 0.059695143 59
0.95751321 2.7449749 -0.76819187 3
0.90203208 2.5844724 -0.62264335 46
0.30550873 0.87484264 -0.17252707 18
0.30583996 0.87530035 -0.14063588 19
1.1476439 3.2826655 -0.42167699 65
0.27577233 0.78836423 -0.06972459 9
0.28810233 0.82315165 -0.043554984 6
1.1543955 3.2964358 -0.060298059 84
1.1545979 3.2951701 0.92467535 54
1.1538705 3.2912531 0.79572469 46
1.1564428 3.2967474 0.67104459 54
1.1575347 3.2980173 0.54691732 39
1.1588037 3.2997899 0.42411092 50
1.1602852 3.302165 0.30226198 48
1.1586925 3.2957928 0.18047935 54
1.1606596 3.2995472 0.059781536 55
0.96226907 2.7279513 -0.76431209 2
0.90942663 2.5767136 -0.62151939 41
0.31346381 0.8876555 -0.17538664 13
0.30889347 0.8742274 -0.14063588 14
1.1590954 3.2786393 -0.42167699 72
0.27852255 0.78739685 -0.06972459 5
1.1689246 3.302773 -0.18100096 14
1.167564 3.2970989 -0.060385324 88
1.1677063 3.2956727 0.92596859 46
1.1669799 3.2917972 0.7968486 45
1.1695843 3.2973166 0.67199773 60
1.1706917 3.2986109 0.54769862 40
1.1719757 3.3004014 0.42471942 56
1.1734725 3.3027885 0.30269691 54
1.1718625 3.2964327 0.18074015 58
1.1738453 3.3001854 0.059867922 55
0.96691775 2.7109282 -0.7604323 2
0.92005301 2.5781121 -0.62264335 46
0.31160879 0.87268847 -0.17252707 9
0.31526628 0.88244522 -0.14219849 8
1.1722037 3.2792466 -0.4222855 74
nan nan nan 0
0.27701831 0.77410787 -0.040946901 4
1.1807511 3.2977099 -0.060472585 86
1.1808321 3.2961233 0.92726189 53
1.1801071 3.2922902 0.7979725 46
1.182744 3.2978339 0.67295092 56
1.1838669 3.2991526 0.54847991 42
1.1851661 3.3009613 0.42532787 59
1.1866783 3.3033597 0.30313182 55
1.1850511 3.2970212 0.18100096 54
1.185358 3.296068 0.059867922 55
0.97309792 2.6984496 -0.75784576 2
0.92904663 2.5748849 -0.62264335 50
0.31298649 0.86697876 -0.17157389 5
nan nan nan 0
1.1853299 3.2798023 -0.42289397 75
1.186801 3.2820807 -0.30199465 37
1.1902549 3.2898366 -0.18074015 60
1.1939567 3.298269 -0.06055985 86
1.1939752 3.2965224 0.92855507 48
1.1932522 3.292731 0.79909641 41
1.1959215 3.2982998 0.67390412 57
1.1953758 3.2949998 0.54847991 48
1.1983747 3.3014693 0.42593637 56
1.1999023 3.3038793 0.30356672 47
1.1982578 3.2975576 0.18126176 52
1.1991397 3.2963991 0.059954315 53
0.98298174 2.694865 -0.75784576 2
0.93802911 2.5716262 -0.62264335 43
nan nan nan 0
0.32141915 0.88022274 -0.14219849 2
1.1984744 3.2803066 -0.42350245 75
1.2016706 3.2872744 -0.30286619 65
1.2034465 3.2903514 -0.18100096 75
1.2071805 3.2987757 -0.060647108 88
1.2071357 3.2968702 0.92984837 49
1.2064146 3.2931209 0.80022031 38
1.2091166 3.2987137 0.67485732 61
1.2085706 3.2954435 0.54926121 39
1.2116014 3.3019249 0.42654485 49
1.2114277 3.2996707 0.30356672 52
1.2114828 3.2980416 0.18152258 57
1.211789 3.297097 0.060040701 55
0.99358296 2.6961222 -0.75913906 2
0.94868553 2.5729074 -0.6237672 38
nan nan nan 0
nan nan nan 0
1.2116369 3.2807584 -0.42411092 75
1.2148645 3.2877321 -0.30330199 72
1.2183876 3.2954972 -0.18152258 79
1.2204225 3.2992308 -0.060734373 88
1.220313 3.2971659 0.93114161 48
1.2195942 3.2934582 0.80134422 38
1.220624 3.2944727 0.67485732 59
1.221783 3.295836 0.55004251 42
1.2248458 3.3023291 0.42715335 45
1.2264042 3.3047614 0.30443653 51
1.2247258 3.2984736 0.18178338 52
1.2250316 3.2975335 0.060127094 53
1.0046741 2.6971636 -0.7604323 2
0.95766079 2.5695801 -0.6237672 38
0.95828009 2.5698709 -0.52520674 39
nan nan nan 0
1.2248172 3.2811584 -0.42471942 77
1.2280762 3.2881377 -0.30373776 76
1.2298836 3.291224 -0.18152258 76
1.2336823 3.299633 -0.060821634 84
1.233507 3.29741 0.93243486 46
1.2327911 3.2937441 0.80246812 38
1.2338376 3.2947884 0.67581046 55
1.235013 3.2961755 0.55082381 42
1.2381076 3.30268 0.42776179 46
1.2379326 3.3004603 0.30443653 47
1.236232 3.2941787 0.18178338 51
1.238292 3.2979174 0.06021348 58
1.0157846 2.6981604 -0.76172554 2
0.96834189 2.570781 -0.62489116 36
0.9672448 2.5665104 -0.52520674 39
nan nan nan 0
1.2380147 3.2815063 -0.42532787 77
1.2413055 3.288491 -0.30417356 80
1.2431288 3.2915819 -0.18178338 80
1.2469598 3.2999833 -0.060908895 84
1.2467177 3.2976015 0.9337281 44
1.2460045 3.2939775 0.80359203 37
1.2488059 3.2996426 0.67771685 58
1.2465113 3.2918444 0.55082381 38
1.2513869 3.3029792 0.4283703 45
1.2529769 3.3054347 0.30530638 40
1.2494942 3.294512 0.18204419 51
1.2497962 3.2935746 0.06021348 53
1.0251967 2.6945982 -0.76172554 2
0.9773097 2.5673852 -0.62489116 33
0.97445077 2.5585315 -0.52425355 39
0.95444828 2.5046985 -0.41800106 36
1.2512298 3.2818019 -0.42593637 77
1.2545521 3.2887914 -0.30460933 78
1.2563914 3.2918878 -0.18204419 80
1.2602546 3.3002806 -0.060996156 84
1.2599447 3.2977414 0.9350214 48
1.2592347 3.2941589 0.80471593 37
1.2620693 3.2998476 0.67867005 49
1.2597594 3.2920856 0.55160517 40
1.2646832 3.3032255 0.42897877 56
1.2662891 3.305692 0.30574125 45
1.2627735 3.2947924 0.18230499 58
1.2630754 3.2938597 0.060299873 60
1.0380627 2.7000196 -0.76431209 3
0.9880147 2.568505 -0.62601501 32
0.98337579 2.5551145 -0.52425355 36
0.96141088 2.496743 -0.41721973 34
1.264462 3.2820454 -0.42654485 77
1.2678161 3.2890401 -0.3050451 78
1.2696713 3.2921407 -0.18230499 80
1.2735667 3.3005257 -0.061083421 86
1.2731876 3.2978294 0.93631458 48
1.2724814 3.2942884 0.80583984 38
1.2753499 3.3000004 0.67962325 59
1.2730243 3.2922742 0.55238646 46
1.2779965 3.3034194 0.42958724 53
1.2796185 3.305897 0.30617619 49
1.27607 3.2950208 0.18256581 57
1.2769464 3.2938695 0.060386259 57
1.0497016 2.7006984 -0.76560533 2
0.99742216 2.5648665 -0.62601501 32
0.98917454 2.5423446 -0.52234721 32
0.97055542 2.4932024 -0.41721973 36
1.278284 3.2820137 -0.42715335 80
1.2816709 3.289012 -0.30548087 76
1.2835429 3.2921171 -0.18256581 79
1.2874721 3.3004928 -0.061170679 86
1.2870225 3.2976401 0.93760788 53
1.286319 3.2941406 0.80696374 38
1.2892225 3.2998757 0.68057644 61
1.2868805 3.292186 0.55316776 42
1.2919031 3.303335 0.43019572 50
1.2917266 3.3011849 0.30617619 49
1.2899585 3.2949712 0.18282661 49
1.2902597 3.2940471 0.060472652 55
1.0626533 2.7060091 -0.76819187 2
1.0081509 2.5659041 -0.62713897 29
0.99624729 2.5343082 -0.52139401 29
0.98106003 2.4943953 -0.41800106 35
1.2915498 3.2821496 -0.42776179 78
1.2949687 3.2891531 -0.30591667 76
1.2968565 3.2922623 -0.18282661 80
1.298985 3.2959788 -0.061170679 88
1.3002969 3.2976201 0.93890113 41
1.3013858 3.2986944 0.80921155 37
1.3025355 3.299921 0.68152958 51
1.3001786 3.2922673 0.55394906 39
1.3034261 3.2988052 0.43019572 50
1.3069044 3.3059201 0.307046 43
1.3032887 3.2950919 0.18308742 51
1.3035898 3.2941716 0.060559038 51
1.076128 2.7110744 -0.77077836 3
1.0171013 2.5623693 -0.62713897 28
1.0050876 2.5308151 -0.52139401 31
0.99158466 2.4955449 -0.41878235 34
1.3048321 3.282233 -0.4283703 78
1.308283 3.2892408 -0.30635244 77
1.3101871 3.2923551 -0.18308742 79
1.3123317 3.2960689 -0.061257944 82
1.3135874 3.2975485 0.94019437 40
1.3146964 3.2986577 0.81033546 39
1.3158644 3.2999132 0.68248284 50
1.3153228 3.2968826 0.55551171 42
1.3167731 3.2988448 0.43080422 45
1.3184363 3.301338 0.307046 45
1.3166355 3.2951589 0.18334822 53
1.3187922 3.2988851 0.060731817 53
1.0869092 2.7119741 -0.7720716 3
1.0278528 2.5633254 -0.62826282 27
1.0175707 2.5364017 -0.52330035 29
1.0021294 2.4966519 -0.41956368 31
1.3181309 3.2822638 -0.42897877 79
1.3216136 3.2892759 -0.30678821 73
1.3235339 3.2923942 -0.18334822 80
1.3256944 3.2961061 -0.061345205 86
1.326893 3.2974236 0.94148761 41
1.3280225 3.2985678 0.81145936 37
1.331043 3.3044057 0.68438917 53
1.3286692 3.2968519 0.55629301 39
1.3301359 3.298831 0.43141267 40
1.3318156 3.3013351 0.3074809 48
1.3299986 3.2951734 0.18360904 51
1.3321713 3.2988973 0.060818207 53
1.096369 2.7081635 -0.7720716 3
1.0386231 2.5642376 -0.62938678 27
1.0282617 2.5373838 -0.52425355 28
1.0108382 2.4931386 -0.41956368 29
1.3314456 3.2822413 -0.42958724 75
1.3349605 3.2892578 -0.30722398 75
1.3368971 3.2923806 -0.18360904 79
1.3390737 3.2960901 -0.06143247 82
1.3402138 3.2972462 0.94278091 44
1.3413639 3.2984252 0.81258327 37
1.3444192 3.304286 0.68534243 51
1.3420311 3.296768 0.55707431 39
1.343515 3.2987645 0.43202117 53
1.3470906 3.3058915 0.30835071 40
1.3433778 3.2951343 0.18386984 51
1.3436786 3.2942271 0.060818207 59
1.1058156 2.70432 -0.7720716 3
1.0494125 2.5651057 -0.63051063 25
1.0408313 2.5428641 -0.52615994 28
1.0214063 2.4941649 -0.42034501 26
1.344776 3.2821662 -0.43019572 75
1.3502125 3.2937956 -0.30809554 77
1.3502761 3.2923133 -0.18386984 80
1.3524687 3.2960207 -0.061519727 86
1.3535495 3.2970159 0.94407409 39
1.3547202 3.2982295 0.81370717 38
1.3559451 3.2995727 0.68534243 55
1.3554089 3.2966311 0.55785561 39
1.3587977 3.3032339 0.43323815 43
1.360518 3.3057756 0.30878565 41
1.3567729 3.295042 0.18413065 56
1.3595536 3.2985244 0.060990985 49
1.11572 2.7002487 -0.7720716 3
1.058807 2.5612423 -0.63051063 25
1.0520202 2.5435677 -0.52711314 30
1.0324292 2.4949677 -0.42112631 21
1.3586953 3.2818007 -0.43080422 75
1.3622757 3.2888246 -0.30809554 75
1.3642458 3.2919552 -0.18413065 79
1.3683697 3.3002777 -0.061694253 81
1.3674752 3.2964942 0.9453674 42
1.3686675 3.2977421 0.81483108 37
1.3699119 3.2991138 0.68629557 55
1.3693773 3.2962017 0.5586369 39
1.3728002 3.302814 0.43384659 53
1.3745375 3.3053658 0.30922052 45
1.3726768 3.2992673 0.18465227 51
1.3729805 3.2983737 0.061077375 58
1.1251389 2.6963379 -0.7720716 3
1.0696181 2.5620267 -0.63163459 25
1.0627842 2.544409 -0.52806634 28
1.0430363 2.4959056 -0.42190763 21
1.372057 3.2816167 -0.43141267 75
1.377592 3.2932398 -0.30896711 77
1.3776561 3.291779 -0.18439145 77
1.3818123 3.3000925 -0.061781514 81
1.3808398 3.2961552 0.94666064 40
1.3820537 3.2974374 0.81595498 38
1.3833178 3.2988384 0.68724877 56
1.3827852 3.2959554 0.55941826 38
1.3862416 3.302578 0.4344551 53
1.3879957 3.3051405 0.30965546 43
1.3861191 3.2990589 0.18491307 56
1.3864229 3.2981696 0.061163764 58
1.1326685 2.6879432 -0.77077836 3
1.0804473 2.5627666 -0.63275844 26
1.0716594 2.5406835 -0.52806634 30
1.0536624 2.4967995 -0.42268893 18
1.3873643 3.2859514 -0.43262964 79
1.3910174 3.2929995 -0.30940288 67
1.391082 3.2915497 -0.18465227 79
1.3952702 3.2998536 -0.061868776 81
1.394219 3.2957635 0.94795388 44
1.3954544 3.29708 0.81707889 38
1.3967382 3.2985091 0.68820196 50
1.3962085 3.2956562 0.56019956 37
1.399698 3.3022881 0.43506357 50
1.401469 3.3048606 0.31009036 49
1.3995769 3.2987971 0.18517388 51
1.3998805 3.2979121 0.061250154 58
1.1401531 2.6795287 -0.76948506 3
1.0912949 2.5634627 -0.6338824 23
1.0824449 2.5414431 -0.52901947 28
1.0643076 2.4976497 -0.42347026 20
1.3949332 3.2719579 -0.43141267 37
nan nan nan 0
1.4045229 3.291266 -0.18491307 76
1.4087434 3.2995605 -0.061956041 81
1.4095094 3.2997599 0.95054042 46
1.4088695 3.296669 0.81820279 37
1.4101733 3.2981269 0.68915516 50
1.4096463 3.2953029 0.56098086 38
1.4131693 3.301945 0.43567204 45
1.4149573 3.3045278 0.31052527 49
1.4130495 3.2984812 0.1854347 48
1.4133533 3.2976005 0.061336543 47
1.147593 2.6710951 -0.76819187 3
1.1021603 2.5641139 -0.63500631 25
1.0932487 2.5421584 -0.52997267 23
1.0749713 2.4984555 -0.42425156 21
nan nan nan 0
1.2839395 2.9812741 -0.2806415 10
1.417979 3.2909291 -0.18517388 79
1.4242104 3.3038046 -0.062130563 84
1.4229318 3.2992547 0.95183361 50
1.4222987 3.2962046 0.8193267 48
1.4236227 3.2976904 0.6901083 51
1.4230987 3.2948961 0.56176221 39
1.4286238 3.3061032 0.43688902 53
1.4284601 3.3041403 0.31096017 46
1.4265369 3.2981114 0.18569551 50
1.426841 3.2972348 0.061422933 44
1.1569098 2.667073 -0.76819187 3
1.1130437 2.5647202 -0.63613021 22
1.1040707 2.5428288 -0.53092587 24
1.0856537 2.4992177 -0.42503288 20
nan nan nan 0
1.2903661 2.9676387 -0.27976996 12
1.4314495 3.2905378 -0.1854347 78
1.4377292 3.3033972 -0.062217824 80
1.4363679 3.2986956 0.95312691 49
1.4357418 3.295686 0.8204506 38
1.4370863 3.2972007 0.69106156 62
1.4365653 3.2944353 0.56254351 46
1.4421402 3.3056452 0.4374975 58
1.4439701 3.3082643 0.31183001 45
1.440039 3.297688 0.18595631 53
1.4403431 3.2968152 0.061509322 51
1.1681501 2.6674423 -0.76948506 3
1.1239448 2.5652819 -0.63725412 21
1.1129401 2.5389593 -0.53092587 23
1.0963545 2.4999356 -0.42581415 18
1.3294197 3.0299394 -0.40098864 96
1.3007171 2.9631164 -0.27976996 10
1.4449348 3.2900927 -0.18569551 79
1.4512625 3.3029354 -0.062305089 80
1.4498174 3.2980833 0.95442015 49
1.4491986 3.2951143 0.82157451 38
1.4505637 3.2966566 0.69201469 52
1.4520359 3.2984407 0.56410611 49
1.4556705 3.3051329 0.43810597 45
1.457518 3.3077621 0.31226492 40
1.4535556 3.29721 0.18621713 55
1.4558772 3.3009157 0.061682101 60
1.1813599 2.6721833 -0.7720716 4
1.1368339 2.5702543 -0.63950193 21
1.1237822 2.5395477 -0.53187907 19
1.1070734 2.5006092 -0.42659551 19
1.3359683 3.0162051 -0.39977169 85
1.3150883 2.9676657 -0.2806415 9
1.4584343 3.2895939 -0.18595631 78
1.46481 3.3024189 -0.062392347 80
1.4632802 3.2974172 0.95571339 48
1.4646457 3.2989411 0.82382232 37
1.4640548 3.2960591 0.69296789 47
1.4655464 3.2978652 0.56488746 46
1.4692149 3.3045661 0.43871447 53
1.4710796 3.3072054 0.31269982 52
1.4691163 3.3012397 0.18673874 51
1.469424 3.3003805 0.061768491 55
1.194617 2.6768646 -0.77465808 4
1.1477851 2.570719 -0.64062583 21
1.1346416 2.5400906 -0.53283226 18
1.1178102 2.5012383 -0.42737678 18
1.3485146 3.0160539 -0.40038019 34
1.3234056 2.9585102 -0.2802057 9
1.4739876 3.2935979 -0.18647793 78
1.4783717 3.3018486 -0.062479611 82
1.4767557 3.2966969 0.95700663 40
1.4781449 3.2982547 0.82494622 38
1.4795675 3.299886 0.69487429 49
1.4790702 3.297235 0.5656687 45
1.4827731 3.3039453 0.43932295 57
1.4846551 3.3065941 0.31313473 55
1.4826771 3.3006465 0.18699956 53
1.482985 3.2997911 0.06185488 53
1.2059375 2.6770821 -0.77595139 4
1.160755 2.5755801 -0.64287359 20
1.145519 2.5405893 -0.53378546 18
1.1305959 2.5063245 -0.4289394 17
1.3345363 2.9570463 -0.39307842 4
1.3357744 2.9584122 -0.2806415 8
1.4875309 3.2929833 -0.18673874 78
1.4919472 3.3012238 -0.062566876 80
1.4922341 3.300324 0.95959312 45
1.4916569 3.2975137 0.82607013 37
1.493101 3.2991729 0.69582742 40
1.4926078 3.2965512 0.56645006 40
1.4983925 3.3077905 0.4405399 51
1.5003005 3.3104653 0.31400454 46
1.4962511 3.2999983 0.18726036 52
1.4965595 3.2991474 0.061941274 59
1.2192731 2.6816494 -0.77853787 3
1.1737732 2.5803823 -0.6451214 18
1.1584466 2.5455103 -0.5356918 17
1.1413842 2.5068576 -0.42972073 16
1.3407357 2.9433374 -0.39186147 3
nan nan nan 0
1.501088 3.2923141 -0.18699956 77
1.5055362 3.300544 -0.062654138 84
1.5057505 3.2994888 0.96088642 44
1.5051817 3.2967188 0.82719404 38
1.5086868 3.3028698 0.69773382 51
1.5082113 3.3003044 0.56801265 38
1.5119933 3.3070536 0.4411484 45
1.5139191 3.3097379 0.31443948 40
1.5119169 3.3038359 0.18778197 48
1.5101478 3.2984488 0.062027659 49
1.2286263 2.6773772 -0.77853787 3
1.1868387 2.585125 -0.64736921 20
1.1693736 2.5459111 -0.536645 17
1.1542521 2.511833 -0.43128335 16
1.3551478 2.9476576 -0.39307842 4
1.5104177 3.2838838 -0.31288913 61
1.5146585 3.2915902 -0.18726036 79
1.5191388 3.2998099 -0.062741399 80
1.5192794 3.2985997 0.96217966 49
1.5187193 3.2958696 0.82831794 38
1.5222617 3.3020408 0.69868702 50
1.5217906 3.2995043 0.56879395 38
1.5256073 3.3062618 0.44175684 46
1.5275507 3.3089554 0.31487435 46
1.5255337 3.3030713 0.18804279 50
1.5243248 3.2974296 0.062114052 55
1.2384311 2.6728561 -0.77853787 3
1.2004037 2.5895979 -0.64961702 20
1.1828271 2.5505137 -0.53855139 17
1.1676077 2.5165455 -0.43284598 15
1.3283308 2.8616436 -0.38212577 7
1.5308354 3.296396 -0.31463224 75
1.5288166 3.2905452 -0.18752117 78
1.5354375 3.3032868 -0.062915921 82
1.5354323 3.3017681 0.9647662 44
1.5348992 3.2991157 0.83056575 37
1.5364252 3.3008893 0.69964021 48
1.5359585 3.2983813 0.56957531 37
1.539811 3.3051469 0.44236535 48
1.5438769 3.3123641 0.31574419 46
1.5397401 3.3019834 0.18830359 55
1.5379391 3.2966189 0.062200438 51
1.2497994 2.6728919 -0.77983105 3
1.2115002 2.5898051 -0.65074098 20
1.195884 2.5552604 -0.54045779 16
1.1805733 2.5213995 -0.43440861 15
1.2877861 2.7491288 -0.36752224 34
1.5275366 3.2594604 -0.31158176 61
1.5424129 3.2897093 -0.18778197 79
1.5490817 3.3024328 -0.063003182 84
1.5490001 3.3007605 0.96605939 45
1.5484766 3.2981482 0.83168966 37
1.550025 3.2999485 0.70059341 47
1.5495629 3.2974694 0.57035661 38
1.5555615 3.3087339 0.4435823 43
1.55755 3.3114619 0.3161791 40
1.5533826 3.3011062 0.1885644 50
1.5536958 3.3002765 0.062373217 49
nan nan nan 0
1.2226127 2.5899663 -0.65186483 16
1.2089883 2.5599468 -0.54236418 17
1.1935869 2.5261939 -0.4359712 15
1.3058581 2.7625644 -0.36995617 28
1.5452933 3.2676172 -0.31288913 63
1.5560223 3.2888188 -0.18804279 79
1.5627388 3.3015242 -0.063090444 84
1.5625795 3.2996986 0.96735269 40
1.5620658 3.2971258 0.83281356 35
1.5657389 3.3033886 0.70249981 47
1.5631799 3.2965026 0.57113791 38
1.5692289 3.3077676 0.44419077 45
1.5712352 3.3105049 0.316614 39
1.5691799 3.3046849 0.18908602 51
1.5673518 3.2993488 0.06245961 51
1.442835 3.0304093 -0.88846427 32
1.2358363 2.5944798 -0.65411264 5
1.2179168 2.5557113 -0.54236418 5
1.2066483 2.5309277 -0.43753383 15
1.3283126 2.7848654 -0.37360704 13
1.5717061 3.2936709 -0.31593958 75
1.5696441 3.2878733 -0.18830359 78
1.5764083 3.3005598 -0.063177705 84
1.5782529 3.3029397 0.96993917 40
1.5756667 3.2960482 0.83393741 39
1.5793781 3.3023307 0.70345294 53
1.5789404 3.2999361 0.57270056 38
1.5829084 3.3067465 0.44479927 50
1.5849329 3.3094926 0.31704891 47
1.5828633 3.3036904 0.18934682 56
1.5810199 3.2983658 0.062546 58
1.4534044 3.0253544 -0.88846427 12
1.2765427 2.656018 -0.67097121 4
1.2183225 2.5337503 -0.53855139 2
1.2197573 2.5356009 -0.43909645 15
1.34233 2.7891557 -0.37482399 28
1.5831935 3.2881646 -0.31593958 33
1.5854452 3.2913709 -0.1888252 76
1.5900902 3.2995408 -0.063264973 83
1.5918703 3.3017612 0.97123241 46
1.5913959 3.299305 0.83618528 38
1.5951619 3.3056388 0.70535934 46
1.5925968 3.2988517 0.5734818 39
1.5965997 3.3056693 0.44540775 53
1.5986428 3.3084249 0.31748381 50
1.5965588 3.3026404 0.18960764 55
1.5968771 3.3018279 0.062718779 47
1.4112897 2.9116077 -0.85613298 2
1.277303 2.6340108 -0.66647559 2
1.2357291 2.5471461 -0.54236418 2
1.2329137 2.5402136 -0.44065908 15
1.3325477 2.7442737 -0.36934766 29
nan nan nan 0
1.5991071 3.2903075 -0.18908602 74
1.6059699 3.3029621 -0.063439496 79
1.6054987 3.3005276 0.97252572 48
1.6050347 3.2981105 0.83730918 37
1.6088399 3.3044639 0.70631254 49
1.6062648 3.2977121 0.57426316 38
1.6124772 3.3089991 0.4466247 45
1.6123643 3.3073018 0.31791875 46
1.6124552 3.3060231 0.19012925 50
1.610585 3.3007264 0.062805168 51
1.5084388 3.0845554 -0.90915632 5
1.3036186 2.6645467 -0.67546684 4
nan nan nan 0
1.243945 2.5403302 -0.4414404 12
1.3159188 2.6861243 -0.36204591 4
1.408821 2.8744912 -0.27671948 3
1.6149791 3.2936723 -0.18960764 76
1.6196914 3.3018246 -0.063526757 79
1.6191376 3.2992389 0.9738189 49
1.620832 3.3012347 0.83955699 37
1.6246927 3.3076386 0.70821887 49
1.6199443 3.2965174 0.57504445 39
1.6262075 3.3078041 0.4472332 48
1.6260974 3.306123 0.31835362 49
1.6261901 3.3048546 0.19039005 53
1.6243049 3.2995694 0.062891558 53
1.6068115 3.2568583 -0.96217966 47
nan nan nan 0
1.399085 2.833323 -0.60622776 102
1.2549922 2.5404003 -0.4422217 3
1.3340826 2.6993108 -0.36447984 7
1.4144309 2.8606265 -0.27584794 18
1.6286805 3.2924905 -0.18986844 76
1.6356418 3.3051116 -0.063701279 82
1.6327872 3.2978957 0.9751122 43
1.634508 3.2999227 0.8406809 37
1.6384079 3.3063452 0.70917213 45
1.6358285 3.2996922 0.57660705 39
1.639949 3.3065534 0.44784164 52
1.639842 3.3048885 0.31878856 46
1.6399366 3.3036306 0.19065087 50
1.6380363 3.298357 0.062977947 58
1.6412669 3.2990792 -0.97640544 74
nan nan nan 0
1.6360015 3.2856185 -0.70535934 63
nan nan nan 0
1.3319585 2.6726635 -0.36143744 2
1.4483567 2.9049542 -0.2806415 3
1.6440471 3.2960079 -0.19039005 77
1.648825 3.3041427 -0.063788541 80
1.6458718 3.2967842 0.97640544 43
1.6497959 3.3032014 0.84292871 36
1.651557 3.3052845 0.71012527 47
1.6489699 3.298667 0.57738841 38
1.6531248 3.3055358 0.44845015 48
1.6530213 3.3038871 0.31922346 46
1.6531175 3.3026392 0.19091167 53
1.653442 3.3018475 0.063150726 47
1.6571058 3.3019633 -0.97899193 82
1.6304777 3.2474902 -0.82944185 45
1.6540698 3.2930462 -0.70821887 69
1.3543009 2.695071 -0.47113016 13
1.3769456 2.7389424 -0.37117311 38
1.505487 2.9933276 -0.28979284 8
1.6577866 3.2947094 -0.19065087 77
1.6648443 3.3072977 -0.063963063 82
1.6595421 3.2953329 0.97769868 39
1.6635082 3.3017733 0.84405261 38
1.6652939 3.3038826 0.71107846 42
1.6626978 3.2973001 0.5781697 39
1.6691236 3.3086069 0.4496671 50
1.6667881 3.3025439 0.31965837 56
1.6668863 3.3013058 0.19117248 48
1.6677876 3.3002269 0.063237108 51
1.6713791 3.3001764 -0.98028523 81
1.6489754 3.2545304 -0.83281356 50
1.6683475 3.2913394 -0.70917213 71
1.3619361 2.6856844 -0.47034886 85
1.4161648 2.7914133 -0.37908337 11
1.5254654 3.0055563 -0.29153597 7
1.6743726 3.2975154 -0.19117248 74
1.6792192 3.3056309 -0.064050324 82
1.6759855 3.2978394 0.98028523 40
1.6800148 3.3043404 0.84630042 36
1.6796172 3.3021314 0.71203166 52
1.6792516 3.2999868 0.5797323 40
1.6834906 3.3068895 0.45027557 55
1.681142 3.3008511 0.32009327 49
1.6835089 3.3040721 0.1916941 50
1.6815678 3.2988389 0.063323505 51
1.6850859 3.2986233 -0.98157841 76
1.6292853 3.1880181 -0.81707889 21
1.6619507 3.2505338 -0.70154655 52
1.3870454 2.7116911 -0.47581801 40
1.4236392 2.7820349 -0.37847489 21
1.6312803 3.1864295 -0.30983865 17
1.688149 3.2960947 -0.19143328 72
1.6930276 3.3041985 -0.064137593 80
1.6896899 3.296267 0.98157841 40
1.6937622 3.3027909 0.84742433 39
1.6933743 3.3006155 0.71298486 57
1.6930155 3.2984989 0.58051366 40
1.6972907 3.305408 0.45088407 47
1.697206 3.3038239 0.32096308 41
1.6973141 3.3026166 0.1919549 50
1.6953585 3.2973952 0.063409887 49
1.6412845 3.185385 -0.94924712 25
1.5868287 3.078378 -0.79010516 54
1.5900494 3.0833044 -0.6662786 38
1.4236742 2.7595 -0.48519379 29
1.4151319 2.7417679 -0.37360704 10
1.6789579 3.2515287 -0.31681114 46
1.7019359 3.2946181 -0.1916941 73
1.7068461 3.3027093 -0.064224847 82
1.7034041 3.2946393 0.98287171 41
1.7075189 3.3011858 0.84854823 37
1.7093966 3.3034029 0.71489125 59
1.7067895 3.2969551 0.58129495 46
1.7111007 3.3038702 0.45149252 43
1.7133112 3.3067248 0.3218329 40
1.7111301 3.3011048 0.19221571 52
1.7114611 3.300333 0.063582666 49
1.6011684 3.0810657 -0.91950232 72
1.599812 3.0771432 -0.79122907 93
1.6030674 3.0820904 -0.6672318 61
nan nan nan 0
1.4476098 2.7808325 -0.37969184 22
1.711004 3.285408 -0.32073313 74
1.7180402 3.2975137 -0.19221571 73
1.7229857 3.3055978 -0.064399377 80
1.7193604 3.2972381 0.9854582 41
1.7212855 3.299525 0.84967214 37
1.7231883 3.3017671 0.71584439 53
1.7228591 3.2997327 0.58285761 40
1.7249207 3.3022759 0.45210102 42
1.7271504 3.3051386 0.32226783 40
1.7272694 3.3039618 0.19273733 54
1.7252879 3.298769 0.063669063 47
1.6163979 3.0840137 -0.9220888 56
1.599231 3.0499654 -0.78560954 17
1.606976 3.0634358 -0.66437227 22
1.4383147 2.7407479 -0.48363116 17
1.487298 2.8328853 -0.38760209 3
1.7294104 3.292645 -0.32204047 71
1.7318627 3.2959166 -0.19247651 76
1.7368401 3.3039887 -0.064486638 80
1.7331076 3.2954912 0.98675144 43
1.7373294 3.3021197 0.85191995 37
1.7392753 3.3044188 0.71775079 48
1.7366678 3.2980683 0.58363885 38
1.7410634 3.3050165 0.453318 43
1.7433215 3.3079028 0.32313764 39
1.7411206 3.3023288 0.19299813 49
1.7391245 3.2971482 0.063755445 51
1.6068398 3.0399222 -0.91044956 10
1.5984801 3.02283 -0.77999008 14
1.5947073 3.0144219 -0.65484035 14
1.4686641 2.7749949 -0.49066293 12
1.599357 3.0206597 -0.41437525 8
1.7455562 3.2953908 -0.32291204 67
1.748033 3.2986751 -0.19299813 76
1.7530458 3.3067393 -0.06466116 82
1.7491264 3.2979553 0.98933792 45
1.7511288 3.3003392 0.85304385 36
1.7531005 3.3026631 0.71870399 45
1.7528021 3.3007097 0.5852015 38
1.7549179 3.3033016 0.45392647 45
1.7571954 3.3061957 0.32357255 40
1.7573256 3.3050485 0.19351974 50
1.7553186 3.2998848 0.063928224 49
1.6128974 3.0257704 -0.90786308 14
1.6044371 3.0086339 -0.77774227 16
1.6029093 3.0045061 -0.65388715 22
1.5550789 2.9136279 -0.51644617 16
1.6426171 3.0763483 -0.42289397 5
1.7593956 3.2936714 -0.32334781 67
1.7618904 3.296957 -0.19325894 74
1.7669348 3.3050086 -0.064748421 82
1.7651834 3.3003476 0.99192441 38
1.764937 3.298502 0.85416776 36
1.7692511 3.3051779 0.72061038 43
1.7666447 3.2989244 0.5859828 38
1.7711251 3.3059049 0.45514345 43
1.7734314 3.3088224 0.32444239 38
1.7712113 3.3032947 0.19378056 47
1.76919 3.2981429 0.064014621 55
1.6234496 3.0201221 -0.90786308 14
1.635697 3.0416334 -0.78785735 21
1.6250147 3.020505 -0.65865314 21
1.5722617 2.9212279 -0.51879013 13
1.6721681 3.1055534 -0.42776179 5
1.7756064 3.2962806 -0.32421938 71
1.775757 3.2951822 -0.19351974 77
1.7832056 3.307622 -0.064922951 80
1.7789859 3.2984169 0.99321771 45
1.7810673 3.3008966 0.85641557 37
1.7831089 3.3033009 0.72156352 47
1.7804959 3.2970834 0.5867641 40
1.785013 3.304069 0.4557519 47
1.787339 3.3069937 0.32487726 41
1.7874808 3.3058765 0.19430217 55
1.7854488 3.3007417 0.0641874 58
1.652395 3.0484061 -0.91820908 41
1.667207 3.074451 -0.7979725 39
1.6542726 3.0493288 -0.6662786 40
1.6107177 2.9678082 -0.52816582 17
1.6829983 3.0996976 -0.42776179 6
1.7894791 3.2944391 -0.32465515 71
1.7920169 3.2977386 -0.19404137 77
1.7971282 3.3057694 -0.065010212 82
1.7951039 3.3006728 0.99580419 40
1.7949071 3.2989392 0.85753942 36
1.7969754 3.3013678 0.72251672 47
1.7967175 3.2995224 0.58832675 39
1.8012838 3.3065338 0.45696887 47
1.8012552 3.3051081 0.3253122 46
1.8013998 3.3040011 0.19456299 47
1.8017474 3.3032668 0.064360179 44
1.6769245 3.0680482 -0.92596859 57
1.6826035 3.077162 -0.80022031 34
1.6837512 3.0779848 -0.67390412 42
1.6400343 2.9968257 -0.53441632 15
1.6938081 3.0938036 -0.42776179 4
1.8033607 3.2925413 -0.32509091 71
1.8059163 3.2958419 -0.19430217 75
1.8134625 3.3082435 -0.065184735 78
1.8112592 3.3028564 0.99839073 40
1.8110985 3.3011966 0.85978723 35
1.8108499 3.2993782 0.72346991 46
1.810601 3.2975597 0.58910805 39
1.8152041 3.3045762 0.45757735 40
1.8151802 3.3031659 0.3257471 47
1.817733 3.3064439 0.1950846 49
1.8180856 3.3057184 0.064532958 44
1.6946175 3.0748661 -0.92984837 55
1.6933346 3.07127 -0.80022031 22
1.6992264 3.0806844 -0.67581046 44
nan nan nan 0
1.7405739 3.1530442 -0.43688902 7
1.8196589 3.2949469 -0.32596248 75
1.8222393 3.298259 -0.1948238 74
1.8274179 3.3062689 -0.065271996 78
1.8251144 3.3007405 0.99968398 43
1.8249691 3.2991178 0.86091119 36
1.8271091 3.301626 0.72537625 54
1.8268845 3.2998607 0.5906707 40
1.8315371 3.3069024 0.45879433 43
1.8315275 3.3055236 0.32661691 48
1.8316841 3.3044457 0.19534542 50
1.8320379 3.3037243 0.064619347 51
1.7100325 3.0773759 -0.93243486 55
1.6993105 3.0568237 -0.7979725 16
1.7123553 3.0790238 -0.67676371 40
1.8313907 3.2917116 -0.58988935 75
1.7781191 3.1946495 -0.4435823 14
1.8335724 3.2929268 -0.32639825 73
1.8361712 3.2962403 -0.1950846 75
1.8413813 3.3042367 -0.065359257 80
1.8413287 3.3027868 1.0022705 52
1.8412204 3.3012373 0.863159 35
1.8410143 3.2995143 0.72632951 49
1.8432063 3.3020883 0.5922333 38
1.8479085 3.309155 0.46001127 45
1.845484 3.3034587 0.32705182 49
1.8480798 3.3067493 0.19586703 50
1.8490152 3.3057129 0.064792126 53
1.726023 3.0795138 -0.9350214 53
1.6985887 3.0293267 -0.79235297 10
1.7284315 3.0812886 -0.67867005 42
1.8506937 3.2978976 -0.5922333 72
1.8335466 3.266006 -0.45453495 30
1.8505074 3.2948701 -0.32726982 73
1.8531319 3.2981949 -0.19560623 76
1.8583786 3.3061812 -0.06553378 82
1.8581564 3.3044355 1.0048569 39
1.858085 3.3029594 0.86540681 36
1.8579099 3.3012993 0.72823584 44
1.8577195 3.2996135 0.5930146 38
1.8624604 3.306684 0.46061975 49
1.8624698 3.3053515 0.32792166 51
1.8626391 3.3043034 0.19612785 43
1.8629987 3.3035932 0.064878516 51
1.7415142 3.0818799 -0.93760788 55
1.7187433 3.0403442 -0.7968486 11
1.7415929 3.0795088 -0.67962325 42
1.867058 3.300014 -0.5937959 74
1.8522699 3.272543 -0.4563604 33
1.8644519 3.2927251 -0.32770559 69
1.8670944 3.2960503 -0.19586703 77
1.8723729 3.3040237 -0.065621048 80
1.8744437 3.3063323 1.0074435 40
1.8744103 3.304929 0.86765462 35
1.8742665 3.3033319 0.73014224 53
1.8741018 3.3016987 0.59457719 45
1.8788927 3.3087938 0.4618367 52
1.8764566 3.3031611 0.32835653 49
1.8790962 3.3064635 0.19664946 49
1.8794608 3.3057621 0.065051295 51
1.754652 3.0799785 -0.93890113 57
1.7341704 3.0427916 -0.79909641 12
1.7547628 3.0776746 -0.68057644 46
1.8810126 3.2977662 -0.59457719 72
1.8661416 3.2703681 -0.45696887 12
1.8808728 3.2948484 -0.32857716 73
1.8835409 3.2981846 -0.19638865 76
1.8888546 3.3061495 -0.065795571 80
1.8883702 3.3039625 1.0087367 40
1.8883537 3.3025956 0.86877853 34
1.89066 3.3052902 0.73204863 53
1.890521 3.3037093 0.59613985 38
1.8928969 3.3065219 0.4624452 50
1.8929263 3.3052354 0.32922637 49
1.8931087 3.3042166 0.19691026 47
1.8934747 3.3035188 0.065137684 49
1.7702034 3.0822115 -0.94148761 58
1.7496356 3.0451686 -0.80134422 12
1.7703872 3.0800414 -0.68248284 46
1.8802035 3.269774 -0.5906707 51
nan nan nan 0
1.894847 3.2925797 -0.32901293 71
1.8975335 3.295917 -0.19664946 78
1.9028788 3.3038678 -0.065882832 80
1.9047142 3.3057206 1.0113232 46
1.9047365 3.304426 0.87102634 37
1.9046382 3.3029227 0.73300183 48
1.9045094 3.301368 0.59692115 38
1.9093885 3.3084912 0.46366215 42
1.9094332 3.3072352 0.33009619 48
1.9096258 3.3062358 0.19743188 47
1.9099969 3.3055463 0.065310463 49
1.7833717 3.0801933 -0.94278091 58
1.7651384 3.0474746 -0.80359203 13
1.7835886 3.07809 -0.68343604 44
nan nan nan 0
1.8789685 3.2400875 -0.45453495 31
1.9113278 3.2945623 -0.32988447 73
1.9140396 3.2979107 -0.19717108 74
1.9194201 3.3058522 -0.066057354 80
1.9186676 3.3032281 1.0126165 39
1.9211551 3.3061821 0.87327415 38
1.9210895 3.3047411 0.73490822 40
1.9209871 3.3032382 0.5984838 39
1.9234211 3.3060958 0.46427062 40
1.9234716 3.3048549 0.33053109 46
1.9236674 3.303865 0.19769269 47
1.92404 3.3031788 0.065396853 49
1.7989818 3.0822923 -0.9453674 54
1.7782218 3.0455019 -0.80471593 15
1.7992737 3.080322 -0.68534243 42
1.922918 3.2906797 -0.59692115 68
1.8952764 3.2420778 -0.4557519 13
1.925331 3.2921703 -0.33032027 71
1.9280612 3.2955191 -0.19743188 76
1.9334735 3.3034468 -0.066144615 78
1.9350674 3.3048465 1.015203 39
1.9351465 3.3036599 0.87439805 37
1.9375764 3.3064842 0.73681456 40
1.9350036 3.3007731 0.59926504 39
1.9399712 3.3079236 0.4654876 45
1.9400371 3.3067131 0.33140093 43
1.9402431 3.3057425 0.19821431 44
1.9406209 3.3050647 0.065569632 51
1.8121793 3.0801568 -0.94666064 57
1.7913131 3.0434752 -0.80583984 14
1.8125055 3.0782518 -0.68629557 44
1.9018083 3.2286298 -0.5867641 44
1.8763471 3.184134 -0.44845015 5
1.9418699 3.2940114 -0.33119184 71
1.9446262 3.2973707 -0.19795349 76
1.9500735 3.3052888 -0.066319138 78
1.9490465 3.3022311 1.0164962 39
1.9516209 3.3052754 0.87664586 36
1.9540991 3.3081532 0.73872095 39
1.9515384 3.3025019 0.60082769 37
1.9540317 3.3054039 0.46609607 40
1.9541035 3.3042085 0.33183581 42
1.9543129 3.3032467 0.19847511 49
1.9546925 3.3025727 0.065656021 47
1.8278471 3.0821207 -0.94924712 55
1.8044119 3.0413938 -0.80696374 14
1.8282497 3.0803478 -0.68820196 44
1.7743921 2.9884169 -0.54379207 14
1.9406743 3.2671692 -0.46122825 9
1.9584453 3.2957766 -0.33206338 71
1.9612269 3.2991464 -0.19847511 75
1.9667099 3.3070552 -0.066493668 80
1.9655006 3.303709 1.0190828 39
1.9656385 3.3026295 0.87776977 34
1.9681458 3.3055294 0.73967409 45
1.9655819 3.2999127 0.60160899 40
1.9706386 3.3070896 0.46731305 54
1.9707264 3.3059244 0.33270565 47
1.9709466 3.3049817 0.19899672 45
1.9713314 3.304316 0.0658288 53
1.841073 3.0798674 -0.95054042 56
1.817518 3.0392582 -0.80808765 15
1.841511 3.0781598 -0.68915516 42
1.7594512 2.9398284 -0.53597891 13
1.9495178 3.2561171 -0.46061975 9
1.9724972 3.2931933 -0.33249915 71
1.9778641 3.3008468 -0.19899672 75
1.9833822 3.3087459 -0.06666819 80
1.9819883 3.3051124 1.0216693 46
1.9821676 3.3041039 0.88001758 38
1.9847237 3.3070557 0.74158049 42
1.9821728 3.3014994 0.60317165 43
1.984726 3.3044453 0.46792153 43
1.9848197 3.3032947 0.33314055 38
1.9850436 3.3023617 0.19925754 55
1.9854296 3.3016989 0.065915182 53
1.8567976 3.0816956 -0.95312691 55
1.8306308 3.0370679 -0.80921155 15
1.8573138 3.0801194 -0.69106156 44
1.7569475 2.9125254 -0.53207237 14
1.9608718 3.2492921 -0.46061975 7
1.9891292 3.2948165 -0.33337072 52
1.994537 3.3024707 -0.19951834 75
2.0000901 3.3103602 -0.066842712 82
1.9960117 3.3023074 1.0229626 39
1.9962099 3.3013337 0.88114142 37
2.0013363 3.3085072 0.74348688 47
1.996242 3.2987857 0.60395294 35
2.0013888 3.3059878 0.4691385 40
2.0014989 3.3048675 0.33401036 41
1.9991462 3.2996829 0.19951834 59
2.0021253 3.303299 0.066087961 44
1.8725576 3.083452 -0.95571339 58
1.8462805 3.0389872 -0.81145936 15
1.8731523 3.082006 -0.69296789 42
1.7619721 2.8979352 -0.53050977 15
1.9670439 3.2339473 -0.4594028 4
2.0032074 3.2921083 -0.33380648 39
2.0086489 3.2997539 -0.19977915 72
2.0142334 3.3076279 -0.066929974 78
2.0125523 3.3035693 1.0255491 40
2.0127926 3.3026657 0.88338923 35
2.0154281 3.3056924 0.74444008 52
2.012888 3.3002298 0.6055156 38
2.0155017 3.3032179 0.46974695 40
2.0156181 3.3021126 0.3344453 42
2.0158565 3.3012073 0.20003995 47
2.0162497 3.3005562 0.066174358 51
1.8883524 3.0851357 -0.95829988 58
1.8619654 3.0408335 -0.81370717 16
1.8890268 3.0838199 -0.69487429 40
1.7669163 2.8833454 -0.52894717 21
2.0042586 3.269372 -0.4654876 9
2.0172908 3.2893414 -0.33424225 38
2.0253773 3.3012342 -0.20030077 76
2.0309973 3.3090985 -0.067104504 80
2.0291259 3.3047559 1.0281355 41
2.0294087 3.3039227 0.88563704 34
2.0320945 3.3070004 0.74634641 49
2.0269816 3.2973907 0.6062969 39
2.0322192 3.3046174 0.47096393 40
2.0323522 3.3035414 0.33531511 39
2.029985 3.2984033 0.20030077 43
2.0330007 3.3020122 0.066347137 51
1.9016455 3.0826359 -0.95959312 54
1.877686 3.0426078 -0.81595498 14
1.9049368 3.0855598 -0.69678068 44
1.7717801 2.8687565 -0.52738452 32
1.997399 3.2328024 -0.46122825 10
2.0261416 3.278043 -0.33380648 34
2.0395145 3.2983913 -0.20056158 77
2.0451658 3.3062406 -0.067191757 80
2.0457327 3.305867 1.030722 47
2.0434935 3.300961 0.88676101 35
2.0462096 3.3040597 0.74729961 43
2.0436814 3.2986913 0.60785949 38
2.0463564 3.3017218 0.47157243 39
2.0491211 3.3048937 0.33618492 42
2.0467498 3.2997835 0.20082238 40
2.0497863 3.3033915 0.066519916 51
