# .PCD v0.7 - Point Cloud Data file format
VERSION 0.7
FIELDS x y z intensity
SIZE 4 4 4 4
TYPE F F F F
COUNT 1 1 1 1
WIDTH 1364
HEIGHT 1
VIEWPOINT 0 0 0 1 0 0 0
POINTS 1364
DATA ascii
-0.014897879 3.282999 0.74852067 40
-0.014301747 3.2776983 0.62910426 63
-0.013730635 3.2779286 0.51253963 52
-0.013162645 3.2789562 0.39733776 54
-0.012616897 3.2858701 0.2835609 60
-0.01201752 3.27881 0.16926458 64
-0.011424089 3.2727473 0.055894006 63
nan nan nan 0
-0.007474341 3.0589097 -0.69682103 57
-0.0069691897 3.071573 -0.58907038 12
-0.006224046 2.9717588 -0.46409839 7
-0.0062856628 3.2740138 -0.39672932 79
-0.0057261847 3.2808588 -0.28369194 80
-0.0051503754 3.2788281 -0.16926458 79
-0.0045835902 3.2827525 -0.056633055 88
-0.0040120548 3.2839098 0.86906546 58
-0.0034379833 3.2830312 0.74852067 39
-0.0028646411 3.2826364 0.63005745 57
-0.0022884456 3.2779565 0.51253963 53
-0.001716871 3.2789819 0.39733776 51
-0.0011469935 3.2858942 0.2835609 54
-0.00057226419 3.2788322 0.16926458 61
-6.0119752e-16 3.2727671 0.055894006 65
nan nan nan 0
0.0031981897 3.054045 -0.69569719 54
0.003752643 3.0715785 -0.58907038 12
0.0042252163 3.0260866 -0.47269279 9
0.0051428159 3.2740157 -0.39672932 75
0.0057261847 3.2808588 -0.28369194 80
0.0062949019 3.2788262 -0.16926458 80
0.0068753823 3.2827485 -0.056633055 86
0.0074509541 3.2839041 0.86906546 59
0.0080219544 3.2830231 0.74852067 41
0.008593916 3.2826266 0.63005745 55
0.0091537721 3.2779446 0.51253963 53
0.0097289225 3.2789679 0.39733776 52
0.010322926 3.2858782 0.2835609 59
0.010872999 3.2788141 0.16926458 60
0.011424089 3.2727473 0.055894006 59
0.0090391142 2.0715995 -0.54445922 2
0.013858777 3.0540152 -0.69569719 54
0.014474431 3.0715468 -0.58907038 12
0.014836472 3.0359304 -0.47425541 9
0.016571231 3.2739778 -0.39672932 78
0.017178485 3.2808189 -0.28369194 77
0.017740102 3.2787843 -0.16926458 82
0.018334271 3.2827044 -0.056633055 88
0.018913874 3.2838578 0.86906546 60
0.019481795 3.2829752 0.74852067 38
0.020052368 3.2825763 0.63005745 58
0.020595877 3.2778926 0.51253963 53
0.021174597 3.278914 0.39733776 52
0.021792715 3.2858222 0.2835609 59
0.022352118 3.2837491 0.1695254 61
0.02288294 3.2776866 0.055980396 55
0.016459953 2.0957034 -0.55092543 3
0.024519194 3.0539482 -0.69569719 52
0.025236303 3.076386 -0.59002358 12
0.025433756 3.0358601 -0.47425541 9
0.027999448 3.2738998 -0.39672932 78
0.028630573 3.2807388 -0.28369194 80
0.029185086 3.2787023 -0.16926458 79
0.029792937 3.2826207 -0.056633055 86
0.030376561 3.2837718 0.86906546 57
0.030941397 3.2828872 0.74852067 38
0.031510573 3.2824864 0.63005745 52
0.032037731 3.2778006 0.51253963 52
0.032620016 3.2788203 0.39733776 60
0.033262245 3.2857261 0.2835609 63
0.033814408 3.2836516 0.1695254 57
0.034324065 3.2775867 0.055980396 57
0.023830019 2.1004629 -0.55221874 3
0.035235435 3.0587156 -0.69682103 57
0.035974741 3.0762789 -0.59002358 12
0.035913508 3.0258763 -0.47269279 8
0.039427318 3.2737823 -0.39672932 81
0.040082317 3.2806189 -0.28369194 80
0.040629718 3.2785807 -0.16926458 80
0.041251242 3.2824962 -0.056633055 84
0.041838881 3.2836459 0.86906546 53
0.042400628 3.2827592 0.74852067 38
0.042968396 3.2823563 0.63005745 53
0.043479193 3.277669 0.51253963 49
0.044065032 3.2786865 0.39733776 63
0.044731367 3.2855897 0.2835609 57
0.045276284 3.2835133 0.1695254 56
0.045764767 3.277447 0.055980396 61
0.031090202 2.0955372 -0.55092543 3
0.045839004 3.0537026 -0.69569719 12
0.046712741 3.0761347 -0.59002358 12
0.045565397 2.9664767 -0.46331707 6
0.050854713 3.2736249 -0.39672932 81
0.051533569 3.2804589 -0.28369194 80
0.052153151 3.2834113 -0.1695254 81
0.052709036 3.2823324 -0.056633055 88
0.05330069 3.2834799 0.86906546 53
0.053859334 3.2825911 0.74852067 37
0.054425698 3.2821865 0.63005745 62
0.054920133 3.2774973 0.51253963 50
0.055509519 3.2785125 0.39733776 68
0.056199942 3.285414 0.2835609 52
0.056737609 3.2833352 0.1695254 58
0.05720491 3.2772675 0.055980396 65
0.038493317 2.1002455 -0.55221874 3
0.056498136 3.053524 -0.69569719 3
0.057541825 3.0808601 -0.59097672 12
0.054709952 2.9021096 -0.45316002 6
0.062281486 3.2734272 -0.39672932 81
0.062984191 3.2802591 -0.28369194 78
0.063614078 3.2832093 -0.1695254 80
0.064166196 3.2821283 -0.056633055 84
0.064761847 3.2832737 0.86906546 57
0.065414317 3.2872541 0.74964464 38
0.06588234 3.2819765 0.63005745 61
0.066360392 3.2772853 0.51253963 54
0.066953316 3.2782989 0.39733776 63
0.067667834 3.2851975 0.2835609 59
0.068198241 3.2831173 0.1695254 68
0.068644367 3.2770476 0.055980396 65
0.045718938 2.0952692 -0.55092543 3
nan nan nan 0
0.068295673 3.0806406 -0.59097672 12
0.064288281 2.8772142 -0.4492535 5
0.073707499 3.2731898 -0.39672932 79
0.074434049 3.2800195 -0.28369194 80
0.075074233 3.2829671 -0.1695254 82
0.075622566 3.2818847 -0.056633055 86
0.076222211 3.2830276 0.86906546 57
0.076888584 3.2870059 0.74964464 39
0.077453814 3.2866337 0.63101065 61
0.077799857 3.2770338 0.51253963 59
0.078514971 3.2830064 0.39794627 55
0.079134904 3.2849414 0.2835609 53
0.079658046 3.2828591 0.1695254 65
0.080082983 3.276788 0.055980396 63
0.052665867 2.0806122 -0.54704571 2
nan nan nan 0
0.079048708 3.0803833 -0.59097672 12
0.074203685 2.8720353 -0.44847217 5
0.085132614 3.2729127 -0.39672932 81
0.085882999 3.2797396 -0.28369194 82
0.086533464 3.282685 -0.1695254 82
0.087210633 3.2865984 -0.05672032 84
0.087681659 3.2827418 0.86906546 56
0.088361904 3.2867174 0.74964464 39
0.088925831 3.2863431 0.63101065 49
0.089238361 3.2767425 0.51253963 53
0.089974321 3.2827127 0.39794627 58
0.090601012 3.2846451 0.2835609 61
0.091116868 3.2825608 0.1695254 63
0.091520615 3.2764888 0.055980396 67
0.059371956 2.0611045 -0.54187268 2
0.059396986 2.0495448 -0.46417275 2
0.08980076 3.0800886 -0.59097672 10
0.084228508 2.8717587 -0.44847217 5
0.096556701 3.2725954 -0.39672932 80
0.097330905 3.2794199 -0.28369194 80
0.097991653 3.2823632 -0.1695254 79
0.098682478 3.2862737 -0.05672032 86
0.099285841 3.2872434 0.87035877 58
0.099834152 3.2863889 0.74964464 39
0.10039677 3.2860129 0.63101065 47
0.10067578 3.2764106 0.51253963 56
0.10143258 3.2823787 0.39794627 54
0.102066 3.2843089 0.2835609 60
0.10257459 3.282223 0.1695254 65
0.10295712 3.276149 0.055980396 67
0.065942504 2.041575 -0.53669971 2
nan nan nan 0
0.10055173 3.0797563 -0.59097672 9
0.094576329 2.881319 -0.4500348 6
0.10797959 3.2722387 -0.39672932 77
0.10877762 3.2790601 -0.28369194 84
0.10944863 3.282001 -0.1695254 82
0.11015311 3.2859092 -0.05672032 83
0.11075985 3.2868767 0.87035877 57
0.11130518 3.2860205 0.74964464 40
0.11203349 3.2905476 0.63196379 51
0.11228088 3.2809749 0.51332092 53
0.1128896 3.2820044 0.39794627 57
0.11370185 3.2889104 0.28399581 56
0.11403107 3.2818449 0.1695254 67
0.11456686 3.2807658 0.056066785 65
0.073586829 2.0558124 -0.54057944 2
0.074054204 2.0588176 -0.46642056 17
0.1111242 3.0744815 -0.59002358 7
0.10427495 2.8711007 -0.44847217 5
0.11940118 3.2718415 -0.39672932 79
0.12022302 3.2786603 -0.28369194 82
0.1209043 3.2815988 -0.1695254 81
0.12162241 3.2855046 -0.05672032 88
0.12223252 3.2864699 0.87035877 60
0.12277485 3.2856119 0.74964464 38
0.12351897 3.2901363 0.63196379 56
0.12373293 3.2805629 0.51332092 52
0.12434525 3.2815905 0.39794627 63
0.1251816 3.2884936 0.28399581 58
0.12548615 3.2814269 0.1695254 64
0.12659071 3.280324 0.056066785 65
0.081502192 2.0651813 -0.54316592 2
0.07986287 2.0147185 -0.45630541 20
0.12161092 3.054436 -0.58621085 5
0.11499469 2.875634 -0.4492535 5
0.13139229 3.2713821 -0.39672932 77
0.1322391 3.2781978 -0.28369194 82
0.13293114 3.2811339 -0.1695254 82
0.13366356 3.2850368 -0.05672032 86
0.13447441 3.2908258 0.87165201 60
0.13501616 3.2900076 0.75076848 39
0.1355771 3.2896616 0.63196379 51
0.13596018 3.2850218 0.51410228 54
0.13637204 3.2811127 0.39794627 58
0.13723369 3.2880127 0.28399581 69
0.13772142 3.2859337 0.1697862 61
0.13804041 3.2798622 0.056066785 67
0.089539759 2.0841861 -0.54833895 5
0.087105036 2.019295 -0.45742929 19
0.13142259 3.0343781 -0.58239806 3
0.1271774 2.9245543 -0.4570666 6
0.14281073 3.2709036 -0.39672932 81
0.14368135 3.2777162 -0.28369194 78
0.14460316 3.2856381 -0.1697862 84
0.14512967 3.2845502 -0.05672032 88
0.14596073 3.2903366 0.87165201 61
0.1464996 3.2895162 0.75076848 39
0.14705934 3.2891684 0.63196379 57
0.14742623 3.2845273 0.51410228 49
0.14804783 3.2855744 0.39855474 64
0.14871016 3.2875135 0.28399581 60
0.14919063 3.2854331 0.1697862 58
0.14948842 3.2793603 0.056066785 70
0.096004061 2.0742283 -0.54575241 31
0.093122452 2.0043948 -0.4540576 27
0.14102694 3.0241196 -0.58049166 4
0.14103137 3.0129137 -0.47113016 8
0.15388958 3.2753692 -0.39733776 77
0.15454985 3.2772217 -0.28369194 78
0.15549794 3.2851405 -0.1697862 82
0.15602082 3.2840507 -0.05672032 86
0.15687107 3.2898343 0.87165201 61
0.15717433 3.2841461 0.74964464 39
0.15796579 3.2886624 0.63196379 60
0.1583173 3.2840202 0.51410228 52
0.15894239 3.2850654 0.39855474 61
0.15961112 3.2870021 0.28399581 58
0.16008471 3.2849202 0.1697862 64
0.16036235 3.2788465 0.056066785 65
0.10252345 2.0594091 -0.54187268 26
0.10036162 2.0089233 -0.45518148 23
0.15281104 3.0481198 -0.58525759 9
0.15378076 3.0567942 -0.47816196 9
0.1653218 3.274812 -0.39733776 77
0.16624056 3.281637 -0.28412771 78
0.16696428 3.2845776 -0.1697862 83
0.16748336 3.2834864 -0.05672032 86
0.16835378 3.2892666 0.87165201 58
0.16863719 3.2835774 0.74964464 38
0.16944441 3.2880912 0.63196379 58
0.1697797 3.2834475 0.51410228 47
0.17040844 3.2844908 0.39855474 61
0.17134289 3.2913997 0.28443071 60
0.17155024 3.2843413 0.1697862 63
0.17237884 3.2782369 0.056066785 72
0.10955521 2.0493731 -0.5392862 22
0.1074631 2.0036771 -0.4540576 24
0.16345447 3.0377364 -0.58335125 6
0.16498342 3.0562098 -0.47816196 9
0.17732349 3.274184 -0.39733776 77
0.17826724 3.2810056 -0.28412771 80
0.17900172 3.2839437 -0.1697862 78
0.17978978 3.2878423 -0.056807578 90
0.1804084 3.2886274 0.87165201 59
0.18067098 3.2829373 0.74964464 38
0.18149473 3.2874479 0.63196379 61
0.181813 3.2828033 0.51410228 56
0.18244554 3.283844 0.39855474 58
0.18340532 3.2907498 0.28443071 56
0.18358681 3.2836905 0.1697862 64
0.18382098 3.2776151 0.056066785 63
0.11615888 2.0393343 -0.53669971 27
0.11417866 1.9984255 -0.45293367 27
nan nan nan 0
0.17650087 3.0704067 -0.48050591 9
0.18903713 3.2784998 -0.39794627 79
0.18971899 3.2803631 -0.28412771 82
0.19046374 3.283299 -0.1697862 82
0.19126539 3.2871945 -0.056807578 83
0.19188677 3.2879777 0.87165201 65
0.19212946 3.2822866 0.74964464 39
0.19296895 3.2867944 0.63196379 61
0.19327103 3.2821488 0.51410228 54
0.19390719 3.2831872 0.39855474 61
0.19489107 3.2900894 0.28443071 62
0.1950479 3.2830298 0.1697862 67
0.19526088 3.2769532 0.056066785 63
0.12298528 2.0340953 -0.53540641 26
0.1208589 1.9931517 -0.45180979 28
0.18197632 2.9924283 -0.57477254 3
0.18691687 3.0648425 -0.47972459 9
0.20048007 3.2778201 -0.39794627 79
0.20116845 3.279681 -0.28412771 86
0.20192343 3.282614 -0.1697862 82
0.20273869 3.2865069 -0.056807578 86
0.20336278 3.287288 0.87165201 60
0.20388727 3.2864585 0.75076848 38
0.20444083 3.2861009 0.63196379 62
0.20472667 3.2814541 0.51410228 52
0.20536648 3.2824903 0.39855474 64
0.20668633 3.2943599 0.28486562 54
0.20650664 3.2823291 0.1697862 63
0.20701316 3.2812414 0.056153174 61
0.12977654 2.0288336 -0.53411317 28
0.12750371 1.9878556 -0.45068586 30
nan nan nan 0
0.19761404 3.0641716 -0.47972459 9
0.21192057 3.2771006 -0.39794627 79
0.21261543 3.2789588 -0.28412771 80
0.21338065 3.2818892 -0.1697862 81
0.21420948 3.2857792 -0.056807578 83
0.21483631 3.2865579 0.87165201 62
0.2153579 3.285727 0.75076848 37
0.21591023 3.2853673 0.63196379 57
0.21617983 3.2807195 0.51410228 47
0.21682324 3.2817533 0.39855474 61
0.21818452 3.2936184 0.28486562 54
0.21796283 3.2815881 0.1697862 65
0.21846557 3.2804987 0.056153174 57
0.13685769 2.0283682 -0.53411317 33
0.13444182 1.9873985 -0.45068586 33
0.12979414 1.9137335 -0.36507112 2
0.20830877 3.063463 -0.47972459 9
0.2233585 3.2763407 -0.39794627 79
0.22439949 3.2831659 -0.28456348 84
0.22483531 3.2811244 -0.1697862 82
0.22567768 3.2850115 -0.056807578 85
0.22630723 3.2857881 0.87165201 60
0.22682592 3.284955 0.75076848 38
0.22771597 3.2894905 0.63291705 56
0.2279723 3.2848716 0.51488352 52
0.22827737 3.2809765 0.39855474 58
0.22968006 3.2928369 0.28486562 56
0.22941639 3.2808073 0.1697862 68
0.22991534 3.279716 0.056153174 67
0.14359522 2.0230606 -0.53281993 33
0.14103255 1.9820573 -0.44956198 35
0.13717197 1.9230603 -0.36697748 2
0.219001 3.0627172 -0.47972459 9
0.23479371 3.2755411 -0.39794627 83
0.23585851 3.2823627 -0.28456348 80
0.23628721 3.2803197 -0.1697862 82
0.23714316 3.2842038 -0.056807578 88
0.23812409 3.2897954 0.87294525 62
0.23829117 3.284143 0.75076848 38
0.23919705 3.2886753 0.63291705 58
0.23943727 3.2840557 0.51488352 56
0.24009049 3.2851093 0.39916322 60
0.24117281 3.2920151 0.28486562 60
0.24086714 3.2799864 0.1697862 64
0.24230239 3.2838366 0.056239564 70
0.15064956 2.0177042 -0.53152668 37
0.14829619 1.981527 -0.44956198 34
0.14458658 1.9274392 -0.36793068 3
0.23022494 3.0618937 -0.47972459 9
0.24679759 3.2746584 -0.39794627 81
0.24788739 3.281476 -0.28456348 84
0.24868555 3.2844102 -0.17004701 83
0.24955709 3.2882974 -0.056894843 86
0.25018018 3.2889004 0.87294525 66
0.25032657 3.2832479 0.75076848 38
0.25124905 3.2877767 0.63291705 62
0.25147229 3.2831564 0.51488352 47
0.25212941 3.2842073 0.39916322 58
0.25285491 3.2861426 0.28443071 56
0.25327122 3.2840598 0.17004701 63
0.25376365 3.2829709 0.056239564 59
0.1573153 2.0123508 -0.53023344 43
0.15483154 1.9761403 -0.44843808 37
0.15016098 1.9122431 -0.36507112 3
0.24091156 3.0610714 -0.47972459 9
0.25822678 3.2737768 -0.39794627 79
0.25934035 3.2805908 -0.28456348 82
0.26014879 3.2835224 -0.17004701 83
0.26103386 3.2874062 -0.056894843 85
0.26165909 3.2880073 0.87294525 66
0.26217309 3.2872109 0.75189245 41
0.26272398 3.2868798 0.63291705 66
0.26293111 3.2822583 0.51488352 57
0.26359189 3.2833073 0.39916322 62
0.26432413 3.2852402 0.28443071 64
0.26473317 3.2831557 0.17004701 65
0.2652218 3.2820652 0.056239564 72
0.16433875 2.0117893 -0.53023344 47
0.16172864 1.9755877 -0.44843808 36
0.15723637 1.916599 -0.36602432 3
0.2515952 3.0602119 -0.47972459 9
0.26965281 3.2728558 -0.39794627 83
0.27120006 3.2846298 -0.28499928 82
0.27160883 3.2825944 -0.17004701 83
0.27250749 3.2864749 -0.056894843 86
0.27353469 3.2918868 0.87423849 61
0.27364597 3.2862759 0.75189245 38
0.27419573 3.2859426 0.63291705 63
0.27479827 3.286242 0.51566488 53
0.27505118 3.2823672 0.39916322 54
0.27579015 3.2842975 0.28443071 61
0.27619192 3.2822118 0.17004701 63
0.27709681 3.2861011 0.056325953 63
0.17095017 2.006391 -0.52894014 38
0.16862372 1.9750111 -0.44843808 37
0.16350719 1.9111482 -0.36507112 3
0.26143211 3.0494738 -0.47816196 9
0.28107557 3.2718945 -0.39794627 79
0.28266388 3.283663 -0.28499928 84
0.28306556 3.2816262 -0.17004701 82
0.28397778 3.2855039 -0.056894843 85
0.28502387 3.2909119 0.87423849 62
0.28511557 3.2853003 0.75189245 40
0.28566414 3.2849655 0.63291705 68
0.28626773 3.2852626 0.51566488 52
0.28693873 3.2863309 0.39977169 56
0.28768694 3.2882767 0.28486562 58
0.28764731 3.2812276 0.17004701 60
0.28856575 3.2851138 0.056325953 59
0.17795274 2.0057821 -0.52894014 42
0.17508538 1.9695576 -0.44731417 38
0.17017736 1.9105659 -0.36507112 4
0.27119717 3.0387046 -0.47659937 8
0.29249489 3.2708936 -0.39794627 79
0.29412428 3.2826562 -0.28499928 84
0.29451886 3.2806182 -0.17004701 80
0.29589239 3.2894714 -0.056982104 86
0.29650956 3.2898967 0.87423849 62
0.29658169 3.2842853 0.75189245 39
0.29712906 3.2839482 0.63291705 64
0.29773369 3.2842433 0.51566488 53
0.29840845 3.2853093 0.39977169 57
0.2991634 3.2872524 0.28486562 58
0.29909918 3.2802036 0.17004701 62
0.30003119 3.2840867 0.056325953 59
0.18450953 2.0003393 -0.5276469 41
0.18195935 1.9689345 -0.44731417 36
0.17684543 1.9099603 -0.36507112 5
0.27997786 3.0180695 -0.47347412 7
0.30436996 3.2747943 -0.39855474 81
0.30558112 3.2816095 -0.28499928 82
0.30643237 3.2845416 -0.17030782 84
0.30737302 3.2884185 -0.056982104 85
0.30799162 3.288842 0.87423849 65
0.30849925 3.2880805 0.75301629 38
0.30859038 3.282891 0.63291705 68
0.30965906 3.288101 0.51644617 52
0.30987448 3.2842476 0.39977169 57
0.31110501 3.2911472 0.28530052 58
0.31054738 3.2791395 0.17004701 63
0.31149295 3.2830193 0.056325953 65
0.1914909 1.9996831 -0.5276469 42
0.18883111 1.9682873 -0.44731417 36
0.18351136 1.9093311 -0.36507112 5
0.28435773 2.9531682 -0.46331707 5
0.31579927 3.2737117 -0.39855474 83
0.31703421 3.2805231 -0.28499928 80
0.31789571 3.283452 -0.17030782 80
0.31933251 3.2923017 -0.057069365 88
0.31993711 3.2925541 0.87553179 69
0.3199749 3.2869835 0.75301629 40
0.32052431 3.2866788 0.63387018 64
0.32113481 3.2870002 0.51644617 52
0.32133678 3.2831461 0.39977169 54
0.32259133 3.2900412 0.28530052 58
0.32247996 3.283005 0.17030782 65
0.32295093 3.2819121 0.056325953 59
0.19846994 1.9990023 -0.5276469 45
0.19570056 1.9676162 -0.44731417 38
0.19017504 1.908679 -0.36507112 5
0.30202198 3.0258698 -0.47503674 9
0.32722476 3.2725894 -0.39855474 81
0.32897985 3.2843523 -0.28543505 82
0.32985365 3.2872906 -0.17056863 84
0.33082283 3.291167 -0.057069365 85
0.33142829 3.2914176 0.87553179 66
0.33144668 3.2858467 0.75301629 40
0.33199501 3.2855399 0.63387018 64
0.33260664 3.2858589 0.51644617 54
0.33329582 3.286942 0.40038019 49
0.33457711 3.2938507 0.28573543 59
0.33393782 3.2818592 0.17030782 65
0.33548537 3.2856796 0.056412343 63
0.20579529 1.9982616 -0.5276469 48
0.20291092 1.9668857 -0.44731417 39
0.19716944 1.9079692 -0.36507112 5
0.30649975 2.9608822 -0.46487969 6
0.33921716 3.2713683 -0.39855474 79
0.3410154 3.2831247 -0.28543505 80
0.34189999 3.2860596 -0.17056863 84
0.34288335 3.2899323 -0.057069365 85
0.34348974 3.2901807 0.87553179 67
0.34399441 3.2894554 0.75414026 39
0.34403488 3.284301 0.63387018 60
0.34464768 3.2846179 0.51644617 60
0.34534082 3.2856982 0.40038019 56
0.34664747 3.2926018 0.28573543 57
0.34648785 3.2855787 0.17056863 64
0.3469525 3.2844882 0.056412343 63
0.21276928 1.9975311 -0.5276469 47
0.20977539 1.9661653 -0.44731417 46
0.20382829 1.9072692 -0.36507112 6
0.30684587 2.8664942 -0.4500348 4
0.35116342 3.2750988 -0.39916322 81
0.35247359 3.2819142 -0.28543505 77
0.35390246 3.2898107 -0.17082943 83
0.35490084 3.2936857 -0.057156626 85
0.35497251 3.2889614 0.87553179 68
0.35547465 3.2882347 0.75414026 37
0.35602552 3.2879601 0.63482338 55
0.35664356 3.2883046 0.51722747 53
0.35734391 3.2894063 0.40098864 57
0.35813865 3.2913721 0.28573543 58
0.35795456 3.2843494 0.17056863 60
0.3584154 3.2832572 0.056412343 61
0.21974067 1.9967762 -0.5276469 48
0.21663731 1.9654213 -0.44731417 46
0.21048467 1.9065462 -0.36507112 8
0.28156874 2.5463428 -0.39924961 3
0.3625935 3.2738531 -0.39916322 79
0.36392745 3.2806637 -0.28543505 80
0.36538389 3.2885551 -0.17082943 83
0.36639577 3.2924268 -0.057156626 84
0.36698595 3.2925024 0.87682498 65
0.3669506 3.286974 0.75414026 40
0.36750048 3.2866971 0.63482338 62
0.36811969 3.2870395 0.51722747 56
0.36882392 3.2881389 0.40098864 58
0.37018162 3.2950518 0.28617036 58
0.36941689 3.2830799 0.17056863 67
0.36987388 3.2819862 0.056412343 61
0.2267094 1.9959971 -0.5276469 50
0.2234966 1.964653 -0.44731417 38
0.21713845 1.9057999 -0.36507112 8
0.27533758 2.4128628 -0.37815422 3
0.37458271 3.2774982 -0.39977169 78
0.37594336 3.2843223 -0.28587085 82
0.37686086 3.2872598 -0.17082943 83
0.37788627 3.2911277 -0.057156626 86
0.37847671 3.2912014 0.87682498 62
0.37842202 3.2856729 0.75414026 37
0.37897098 3.2853942 0.63482338 61
0.37959135 3.2857347 0.51722747 50
0.38029939 3.2868314 0.40098864 60
0.38168123 3.2937398 0.28617036 60
0.38087475 3.2817702 0.17056863 57
0.38190514 3.2856412 0.056498732 61
0.23367533 1.9951935 -0.5276469 54
0.23035316 1.963861 -0.44731417 41
0.22378962 1.9050304 -0.36507112 9
0.27914202 2.372649 -0.37190375 3
0.38602102 3.2761705 -0.39977169 80
0.38740548 3.2829902 -0.28587085 80
0.38833323 3.2859242 -0.17082943 80
0.38995975 3.2947533 -0.057243891 86
0.38996285 3.2898602 0.87682498 62
0.38988885 3.2843318 0.75414026 40
0.39043683 3.2840514 0.63482338 56
0.39164227 3.2892935 0.51800877 52
0.39235789 3.2904122 0.40159714 58
0.39317623 3.2923872 0.28617036 56
0.39292088 3.2853787 0.17082943 60
0.39337185 3.2842879 0.056498732 59
0.24121699 1.9991606 -0.52894014 48
0.23662244 1.958208 -0.44619027 40
0.23043807 1.9042374 -0.36507112 9
0.28385743 2.3422437 -0.36721587 3
0.39745462 3.2748029 -0.39977169 76
0.39886293 3.2816179 -0.28587085 80
0.3998009 3.2845488 -0.17082943 84
0.4014582 3.2933719 -0.057243891 88
0.40144423 3.2884789 0.87682498 62
0.40194216 3.287787 0.7552641 38
0.40189791 3.2826686 0.63482338 62
0.40312165 3.2879064 0.51800877 46
0.40384117 3.2890222 0.40159714 58
0.40527427 3.2959383 0.28660524 57
0.40438661 3.283987 0.17082943 57
0.40544561 3.2878563 0.056585122 55
0.24819389 1.9983065 -0.52894014 45
0.24345641 1.95737 -0.44619027 42
0.23708367 1.9034215 -0.36507112 10
0.29447675 2.360841 -0.37034112 3
0.40949854 3.2783203 -0.40038019 78
0.41093367 3.2851479 -0.28630662 82
0.41126364 3.2831333 -0.17082943 84
0.4129518 3.2919507 -0.057243891 83
0.41352272 3.2918499 0.87811828 60
0.41341621 3.2863638 0.7552641 39
0.4133541 3.2812457 0.63482338 61
0.41459611 3.2864792 0.51800877 55
0.41531956 3.2875926 0.40159714 57
0.41677678 3.2945037 0.28660524 58
0.41647491 3.2875094 0.17109025 60
0.41691992 3.2864213 0.056585122 65
0.25516778 1.9974279 -0.52894014 48
0.25028744 1.9565084 -0.44619027 39
0.24372643 1.9025823 -0.36507112 9
0.30145907 2.3500018 -0.3687785 3
0.42093953 3.276871 -0.40038019 81
0.42239854 3.2836933 -0.28630662 82
0.42335939 3.2866297 -0.17109025 82
0.42444032 3.2904892 -0.057243891 84
0.42501086 3.2903862 0.87811828 61
0.42488527 3.2849007 0.7552641 41
0.42543575 3.2846508 0.63577664 62
0.42606553 3.285012 0.51800877 56
0.42679286 3.2861228 0.40159714 52
0.42827421 3.2930286 0.28660524 62
0.42794794 3.2860355 0.17109025 61
0.42903557 3.2899032 0.056671511 65
0.26213855 1.996525 -0.52894014 48
0.25711539 1.9556228 -0.44619027 39
0.25036618 1.9017199 -0.36507112 12
0.30901486 2.3440392 -0.3679972 3
0.43237537 3.2753816 -0.40038019 80
0.43451089 3.2871373 -0.28674239 82
0.43482924 3.2851319 -0.17109025 83
0.4359237 3.2889874 -0.057243891 86
0.4364939 3.2888825 0.87811828 59
0.43699092 3.2882273 0.75638807 39
0.43689877 3.2831457 0.63577664 67
0.43818212 3.2884002 0.51879013 56
0.43891728 3.2895322 0.40220562 54
0.44042608 3.2964511 0.28704017 61
0.44007781 3.2894707 0.17135105 58
0.44051686 3.2883856 0.056671511 61
0.26910615 1.9955978 -0.52894014 46
0.26459217 1.9595416 -0.44731417 44
0.25700292 1.9008344 -0.36507112 10
0.31653261 2.3380523 -0.36721587 3
0.4438059 3.2738526 -0.40038019 76
0.44598249 3.2856002 -0.28674239 80
0.44629383 3.2835941 -0.17109025 80
0.44807589 3.2923994 -0.057331149 86
0.44797155 3.287339 0.87811828 58
0.44846636 3.2866817 0.75638807 40
0.44902083 3.2864633 0.63672978 66
0.4496581 3.2868507 0.51879013 43
0.45039725 3.2879803 0.40220562 54
0.45193014 3.2948937 0.28704017 55
0.45155755 3.2879145 0.17135105 63
0.45267388 3.2917802 0.056757901 59
0.27607042 1.9946463 -0.52894014 46
0.27143064 1.958606 -0.44731417 44
0.26431108 1.9047873 -0.36602432 10
0.32469201 2.3369331 -0.36721587 4
0.45591494 3.2771986 -0.40098864 78
0.45744869 3.2840235 -0.28674239 82
0.45844275 3.2869616 -0.17135105 84
0.45956582 3.2908151 -0.057331149 88
0.46011266 3.2905383 0.87941152 52
0.46061176 3.289921 0.75751191 40
0.46049002 3.2848761 0.63672978 64
0.46181506 3.2901516 0.51957142 50
0.46256241 3.2913024 0.40281412 60
0.46412277 3.2982283 0.28747508 54
0.46372843 3.2912626 0.17161186 57
0.46416157 3.2901802 0.056757901 65
0.28303134 1.9936706 -0.52894014 43
0.2782658 1.9576466 -0.44731417 39
0.27095845 1.9038532 -0.36602432 9
0.33215073 2.3308966 -0.3664346 4
0.4673517 3.2755873 -0.40098864 80
0.46890926 3.2824068 -0.28674239 84
0.46991363 3.2853413 -0.17135105 82
0.47105002 3.289191 -0.057331149 84
0.47159597 3.2889123 0.87941152 56
0.47209296 3.2882934 0.75751191 39
0.47265196 3.2881074 0.63768297 64
0.47329703 3.2885194 0.51957142 46
0.47404838 3.2896678 0.40281412 54
0.47634429 3.3015184 0.28790998 53
0.47521424 3.2896237 0.17161186 60
0.47621754 3.2884569 0.056757901 61
0.29033661 1.9926198 -0.52894014 37
0.28543907 1.9566135 -0.44731417 36
0.27793461 1.9028472 -0.36602432 8
0.33997706 2.3247769 -0.36565328 4
0.48007318 3.2787631 -0.40159714 80
0.48165917 3.2855942 -0.28717816 80
0.4819518 3.2835968 -0.17135105 81
0.48382923 3.2923887 -0.057418413 86
0.48435032 3.2919402 0.88070476 58
0.48485202 3.2913611 0.75863582 41
0.48470032 3.2863526 0.63768297 71
0.48606831 3.2916481 0.52035272 43
0.48610243 3.2879083 0.40281412 54
0.48844174 3.2997503 0.28790998 58
0.48800012 3.2927992 0.17187266 63
0.48842728 3.2917197 0.05684429 59
0.29800344 1.996371 -0.53023344 38
0.29298732 1.9604238 -0.44843808 39
0.28457507 1.9018656 -0.36602432 7
0.34735829 2.3186917 -0.36487198 4
0.49151528 3.2770669 -0.40159714 80
0.49312508 3.2838926 -0.28717816 84
0.49415314 3.2868321 -0.17161186 82
0.49531892 3.2906797 -0.057418413 84
0.49583843 3.2902296 0.88070476 56
0.49633807 3.2896488 0.75863582 40
0.49690196 3.2894938 0.63863617 68
0.49755535 3.2899313 0.52035272 47
0.49757642 3.2861912 0.40281412 52
0.50070351 3.3029497 0.28834489 54
0.49949121 3.2910759 0.17187266 60
0.49991456 3.2899947 0.05684429 65
0.30497026 1.9953188 -0.53023344 38
0.29982868 1.959389 -0.44843808 39
0.29121208 1.9008605 -0.36602432 6
0.35544994 2.3174653 -0.36487198 4
0.50370461 3.2802365 -0.40220562 81
0.50534189 3.2870746 -0.28761396 84
0.50562334 3.2850873 -0.17161186 82
0.50756383 3.2938714 -0.057505675 86
0.50805682 3.293252 0.881998 56
0.50781804 3.2878962 0.75863582 38
0.50838143 3.2877395 0.63863617 71
0.50979191 3.2930553 0.52113408 41
0.50980443 3.2893388 0.40342256 49
0.51222998 3.3011818 0.28834489 54
0.51174259 3.2942464 0.17213348 60
0.51216394 3.2931693 0.05693068 61
0.31193337 1.9942421 -0.53023344 39
0.30666637 1.9583305 -0.44843808 38
0.29784554 1.8998325 -0.36602432 6
0.36277148 2.3113315 -0.36409065 4
0.51515174 3.2784584 -0.40220562 78
0.51681286 3.2852907 -0.28761396 82
0.51786411 3.2882349 -0.17187266 82
0.51905847 3.2920794 -0.057505675 88
0.51954931 3.2914586 0.881998 56
0.51929188 3.2861035 0.75863582 40
0.52062166 3.2907927 0.63958937 68
0.52128363 3.2912557 0.52113408 43
0.52128327 3.2875392 0.40342256 48
0.52375013 3.2993734 0.28834489 61
0.52323854 3.2924399 0.17213348 59
0.52365619 3.2913613 0.05693068 51
0.31889269 1.9931412 -0.53023344 39
0.31427091 1.962059 -0.44956198 40
0.30447537 1.8987812 -0.36602432 6
0.3708373 2.310051 -0.36409065 5
0.52659255 3.2766402 -0.40220562 77
0.52906877 3.2883844 -0.28804973 84
0.52933902 3.2864072 -0.17187266 81
0.53054678 3.2902474 -0.057505675 86
0.53180522 3.2943931 0.8832913 53
0.53153658 3.2890801 0.75975972 39
0.53210551 3.2889555 0.63958937 67
0.53355867 3.2942908 0.52191538 52
0.53355008 3.2905986 0.40403107 48
0.53606194 3.3024421 0.2887798 61
0.53552902 3.2955217 0.17239428 59
0.53514194 3.2895133 0.05693068 61
0.3258481 1.9920157 -0.53023344 41
0.32111788 1.96095 -0.44956198 39
0.3111015 1.8977069 -0.36602432 6
0.37809891 2.3038692 -0.36330935 4
0.53883153 3.2796795 -0.40281412 81
0.54054409 3.2865176 -0.28804973 78
0.5416187 3.2894661 -0.17213348 81
0.54284173 3.2933083 -0.05759294 88
0.54330152 3.2925167 0.8832913 57
0.54301441 3.2872047 0.75975972 40
0.54438359 3.2919204 0.64054251 64
0.54505467 3.2924082 0.52191538 49
0.5450331 3.2887161 0.40403107 57
0.54758644 3.3005509 0.2887798 62
0.54702926 3.293632 0.17239428 60
0.54744124 3.2925572 0.057017069 65
0.3335959 1.9956301 -0.53152668 39
0.32876503 1.9646224 -0.45068586 37
0.31772384 1.8966093 -0.36602432 5
0.38613859 2.3025355 -0.36330935 4
0.55027646 3.2777784 -0.40281412 81
0.55201292 3.2846105 -0.28804973 84
0.55309778 3.2875557 -0.17213348 80
0.55433428 3.2913935 -0.05759294 91
0.55479127 3.2905998 0.8832913 56
0.55529636 3.2900934 0.76088363 38
0.55587125 3.2900002 0.64054251 67
0.55654395 3.2904854 0.52191538 47
0.55733812 3.2916865 0.40463954 58
0.55910414 3.2986193 0.2887798 58
0.55935818 3.2966256 0.17265509 65
0.55893105 3.2906263 0.057017069 63
0.3405599 1.9944534 -0.53152668 37
0.33562082 1.9634627 -0.45068586 33
0.32434234 1.8954887 -0.36602432 5
0.39417356 2.3011734 -0.36330935 5
0.56255347 3.2807293 -0.40342256 81
0.56347495 3.2826641 -0.28804973 82
0.56541568 3.2905257 -0.17239428 81
0.56666744 3.2943652 -0.057680197 86
0.56627417 3.2886434 0.8832913 58
0.56677765 3.2881351 0.76088363 39
0.5681867 3.2928767 0.64149576 66
0.56802654 3.288523 0.52191538 53
0.56967044 3.2946115 0.40524802 62
0.57061505 3.2966475 0.2887798 59
0.57086211 3.2946532 0.17265509 69
0.57041413 3.288655 0.057017069 65
0.34834933 1.9980105 -0.53281993 32
0.34247255 1.9622792 -0.45068586 31
0.33180156 1.8991801 -0.36697748 5
0.40220374 2.2997837 -0.36330935 4
0.57400191 3.2787457 -0.40342256 79
0.57493019 3.2806768 -0.28804973 80
0.57689834 3.2885318 -0.17239428 83
0.5781635 3.292367 -0.057680197 88
0.57858646 3.2914035 0.88458449 56
0.5790962 3.290935 0.76200753 44
0.57967758 3.2908735 0.64149576 63
0.58035982 3.291384 0.52269667 56
0.58202994 3.2974904 0.40585652 67
0.5829857 3.2995405 0.2892147 61
0.58322877 3.2975571 0.17291589 66
0.58276165 3.2915664 0.057103459 67
0.35532156 1.9967824 -0.53281993 27
0.35017452 1.9658685 -0.45180979 27
0.33842891 1.8980103 -0.36697748 4
0.41022906 2.2983656 -0.36330935 4
0.58544338 3.276722 -0.40342256 81
0.58725536 3.2835531 -0.2884855 84
0.58837396 3.2864981 -0.17239428 84
0.59053427 3.2952497 -0.057767462 90
0.59007204 3.2893636 0.88458449 56
0.59058022 3.2888932 0.76200753 43
0.59202963 3.2936609 0.6424489 63
0.59184533 3.2893381 0.52269667 46
0.59353679 3.2954385 0.40585652 67
0.59449965 3.2974856 0.2892147 58
0.5947358 3.295501 0.17291589 66
0.59424782 3.2895124 0.057103459 61
0.36315224 2.000282 -0.53411317 20
0.35703453 1.9646342 -0.45180979 28
0.34593058 1.9016465 -0.36793068 4
0.41913405 2.3017783 -0.36409065 4
0.59687769 3.2746584 -0.40342256 81
0.59871346 3.2814837 -0.2884855 80
0.59984237 3.2844245 -0.17239428 84
0.60203338 3.2931685 -0.057767462 88
0.60241991 3.2920353 0.88587779 55
0.60293478 3.2916043 0.76313144 39
0.60352302 3.291574 0.6424489 64
0.60421515 3.2921093 0.52347797 47
0.60593307 3.2982273 0.40646499 64
0.60690737 3.3002892 0.28964964 58
0.60713959 3.2983158 0.17317671 69
0.60663271 3.2923346 0.057189848 65
0.36837363 1.9895041 -0.53152668 15
0.36477801 1.9681661 -0.45293367 26
0.3534618 1.9052533 -0.36888388 4
0.42806789 2.3051565 -0.36487198 4
0.60921168 3.2774343 -0.40403107 81
0.6110754 3.28427 -0.28892127 86
0.61221772 3.2872195 -0.17265509 84
0.6144411 3.2959614 -0.057854723 88
0.61390764 3.2899122 0.88587779 55
0.61442101 3.2894797 0.76313144 39
0.61591119 3.2942722 0.6434021 62
0.61570305 3.2899802 0.52347797 47
0.61835617 3.3009703 0.40707347 68
0.61842382 3.2981505 0.28964964 58
0.61864918 3.2961764 0.17317671 62
0.61869562 3.2900891 0.057189848 61
0.38194022 2.0213614 -0.54057944 14
0.37289473 1.9716033 -0.4540576 24
0.36135551 1.9087677 -0.36983705 4
0.43743327 2.3084245 -0.36565328 4
0.62122005 3.2751794 -0.40403107 81
0.6231088 3.2820086 -0.28892127 82
0.62426192 3.2849534 -0.17265509 81
0.6265173 3.2936871 -0.057854723 88
0.62686497 3.2923846 0.88717103 58
0.6273855 3.2919912 0.76425534 44
0.62798113 3.2919922 0.6434021 66
0.62868351 3.2925522 0.52425927 46
0.63045067 3.2986817 0.40707347 65
0.63050795 3.295862 0.28964964 60
0.63166511 3.2987907 0.17343751 64
0.63111746 3.292819 0.057276234 63
0.38990709 2.0247588 -0.54187268 8
0.38069671 1.9750735 -0.45518148 21
0.36894596 1.9123139 -0.37079024 3
0.45578897 2.3602223 -0.3742477 4
0.63359058 3.2778637 -0.40463954 77
0.63550746 3.2847037 -0.28935707 80
0.63667405 3.2876563 -0.17291589 83
0.63801062 3.2914803 -0.057854723 88
0.63835371 3.2901764 0.88717103 61
0.63887286 3.2897813 0.76425534 39
0.64040506 3.2945983 0.6443553 64
0.6401729 3.2903376 0.52425927 50
0.64290994 3.3013322 0.40768194 67
0.6429618 3.2985299 0.29008454 63
0.6431762 3.2965658 0.17343751 68
0.64260769 3.290596 0.057276234 59
0.39325303 2.0044274 -0.53669971 5
0.38852751 1.9785135 -0.45630541 23
0.37751222 1.9206469 -0.37269661 3
0.5050177 2.5669818 -0.40784404 5
0.64502859 3.2756319 -0.40463954 81
0.64696938 3.2824655 -0.28935707 80
0.64814621 3.285414 -0.17291589 82
0.65046453 3.2941377 -0.057941984 88
0.65077114 3.2926664 0.88846427 61
0.65129793 3.2923105 0.76537925 40
0.65190142 3.2923429 0.6443553 58
0.65261447 3.2929275 0.52504057 39
0.65442985 3.299068 0.40768194 70
0.65447193 3.2962654 0.29008454 62
0.65565276 3.2991984 0.17369832 67
0.65506542 3.293236 0.057362627 57
nan nan nan 0
0.39543146 1.9771452 -0.45630541 21
0.38614115 1.928943 -0.374603 3
0.53920114 2.6911039 -0.4281581 5
0.65743464 3.2782264 -0.40524802 77
0.65940356 3.2850707 -0.28979284 80
0.66059411 3.288027 -0.17317671 81
0.66195929 3.291847 -0.057941984 86
0.66226077 3.2903745 0.88846427 59
0.6627863 3.2900171 0.76537925 40
0.66436011 3.2948587 0.64530849 62
0.66410494 3.2906291 0.52504057 53
0.66594177 3.2967634 0.40768194 68
0.66696119 3.2988431 0.29051945 60
0.6671651 3.2968895 0.17369832 65
0.66655695 3.2909296 0.057362627 69
0.41301441 2.0300307 -0.54445922 2
0.40330273 1.9805268 -0.45742929 21
0.39287204 1.9275833 -0.374603 3
0.57228255 2.8053396 -0.44690955 6
0.66887379 3.2759116 -0.40524802 77
0.67086661 3.2827487 -0.28979284 84
0.67306805 3.2905929 -0.17343751 83
0.67444861 3.2944138 -0.058029246 88
0.67471176 3.2927744 0.88975751 58
0.67524534 3.2924562 0.76650316 39
0.67585725 3.2925198 0.64530849 59
0.67558736 3.2882912 0.52504057 49
0.67844528 3.2992802 0.40829045 70
0.67847222 3.2964947 0.29051945 60
0.67967671 3.2994311 0.17395914 63
0.67904985 3.2934787 0.057449013 66
nan nan nan 0
0.4112024 1.9838777 -0.45855322 22
0.40358624 1.9454243 -0.37841576 3
0.59913975 2.8855271 -0.46019182 7
0.68131453 3.2784157 -0.40585652 81
0.6833359 3.2852638 -0.29022864 80
0.68455017 3.2882235 -0.17343751 83
0.68594414 3.2920396 -0.058029246 86
0.68620163 3.2903991 0.88975751 56
0.68673402 3.2900791 0.76650316 38
0.68834984 3.294945 0.64626163 59
0.68807232 3.2907469 0.52582192 50
0.68995774 3.2968919 0.40829045 71
0.68997496 3.2941067 0.29051945 59
0.69118977 3.2970383 0.17395914 66
0.6905421 3.2910883 0.057449013 62
nan nan nan 0
0.41913036 1.9871973 -0.4596771 20
0.4164573 1.9728181 -0.38413486 3
0.61533386 2.9124098 -0.46487969 9
0.69275415 3.2760177 -0.40585652 81
0.69479942 3.2828584 -0.29022864 78
0.69705886 3.290699 -0.17369832 80
0.69846815 3.2945158 -0.058116511 86
0.69868559 3.2927084 0.89105082 55
0.6992265 3.2924275 0.76762706 38
0.69984716 3.292522 0.64626163 60
0.69955492 3.2883251 0.52582192 53
0.70249534 3.2993174 0.40889892 69
0.7025075 3.2965498 0.29095435 56
0.70373595 3.299489 0.17421994 66
0.70306963 3.2935469 0.057535406 62
nan nan nan 0
0.42708656 1.9904858 -0.46080104 20
0.45631868 2.1249173 -0.41463691 4
0.62653404 2.9150724 -0.46566102 14
0.70522904 3.2784312 -0.40646499 83
0.70730293 3.2852826 -0.2906644 80
0.70854127 3.2882457 -0.17369832 81
0.70996398 3.2920578 -0.058116511 86
0.71017504 3.2902496 0.89105082 59
0.710715 3.2899668 0.76762706 37
0.7123732 3.2948568 0.64721489 54
0.71207356 3.2906899 0.52660322 49
0.71400785 3.296845 0.40889892 70
0.71401036 3.2940774 0.29095435 54
0.715249 3.2970123 0.17421994 68
0.71456194 3.2910726 0.057535406 64
nan nan nan 0
0.43403205 1.9889829 -0.46080104 19
0.49724656 2.2767603 -0.44513896 7
0.63248736 2.893569 -0.46253577 13
0.71666861 3.2759495 -0.40646499 79
0.71876633 3.2827938 -0.2906644 82
0.72108388 3.2906299 -0.17395914 83
0.72252202 3.2944427 -0.058203775 86
0.72269124 3.2924678 0.892344 49
0.72324008 3.2922244 0.76875097 39
0.7238701 3.2923501 0.64721489 57
0.72461718 3.2930079 0.52738452 49
0.72657907 3.2991793 0.40950739 66
0.72657663 3.2964294 0.29138926 58
0.72782898 3.2993717 0.17448075 68
0.72712344 3.2934403 0.057621799 58
nan nan nan 0
0.44202763 1.9922122 -0.46192494 20
0.52008724 2.3420928 -0.45848358 23
0.6436553 2.8961644 -0.46331707 12
0.72917706 3.2782726 -0.40707347 81
0.73130327 3.2851267 -0.29110017 78
0.73256588 3.2880926 -0.17395914 83
0.73401737 3.2919004 -0.058203775 86
0.73417968 3.2899253 0.892344 47
0.73472768 3.2896795 0.76875097 35
0.7364288 3.2945929 0.64816803 64
0.73610759 3.290458 0.52738452 40
0.73809081 3.296623 0.40950739 68
0.73916805 3.2987335 0.29182416 60
0.73934156 3.2968109 0.17448075 68
0.73861521 3.2908821 0.057621799 62
nan nan nan 0
0.44790709 1.9859043 -0.46080104 22
0.51745206 2.2923846 -0.44895169 12
0.65267265 2.8890829 -0.46253577 13
0.74171031 3.2805476 -0.40768194 83
0.74276614 3.2825539 -0.29110017 80
0.74514192 3.2903852 -0.17421994 77
0.74660879 3.2941937 -0.058291033 86
0.74672771 3.292053 0.8936373 53
0.74728501 3.2918463 0.76987487 37
0.74901199 3.2967885 0.64912122 57
0.74868381 3.2926841 0.52816582 49
0.75069487 3.2988656 0.41011587 66
0.75067824 3.2961333 0.29182416 46
0.75195467 3.2990782 0.17474155 66
0.75120986 3.2931576 0.057708185 57
nan nan nan 0
0.45592502 1.9890778 -0.46192494 16
0.52764577 2.3001328 -0.45085809 18
0.6649636 2.8964138 -0.46409839 14
0.75315702 3.2779386 -0.40768194 79
0.75533611 3.2847955 -0.29153597 82
0.75774276 3.2926302 -0.17448075 82
0.75810313 3.2915676 -0.058291033 83
0.75821453 3.2894261 0.8936373 50
0.75986618 3.2939651 0.77099878 39
0.76051545 3.2941539 0.64912122 57
0.7601729 3.2900505 0.52816582 49
0.76220554 3.2962251 0.41011587 63
0.76330233 3.2983456 0.29225907 62
0.76346606 3.2964334 0.17474155 69
0.76327479 3.2903821 0.057708185 61
nan nan nan 0
0.46100044 1.9779035 -0.4596771 7
0.53495759 2.2934029 -0.44990486 21
0.67669773 2.8987663 -0.46487969 11
0.76629531 3.2799892 -0.40829045 77
0.7673704 3.2820051 -0.29153597 80
0.76980579 3.2898307 -0.17448075 83
0.7713021 3.2936342 -0.058378298 86
0.77136785 3.2913277 0.8949306 50
0.77193403 3.2911577 0.77099878 39
0.7737056 3.296123 0.65007442 60
0.77335584 3.2920504 0.52894717 52
0.77541745 3.2982404 0.41072437 60
0.77538621 3.2955258 0.29225907 62
0.77668738 3.2984734 0.17500237 66
0.77590245 3.2925642 0.057794575 61
0.26788494 1.1323502 -0.30132776 8
0.47575909 2.0094693 -0.46754444 4
0.54295981 2.2915218 -0.44990486 16
0.68681216 2.8963866 -0.46487969 11
0.77773994 3.2772944 -0.40829045 81
0.77997291 3.2841523 -0.29197174 80
0.78243935 3.2919817 -0.17474155 82
0.7827943 3.2909217 -0.058378298 86
0.78397048 3.2933133 0.89622378 56
0.78454679 3.2931828 0.77212268 38
0.7852065 3.2934022 0.65007442 62
0.78484255 3.289331 0.52894717 53
0.78692579 3.2955136 0.41072437 62
0.78804278 3.2976439 0.292694 57
0.7881965 3.2957423 0.17500237 69
0.78739095 3.2898355 0.057794575 63
0.27409258 1.1408006 -0.30391428 14
0.4850485 2.0172701 -0.46979225 2
0.55210376 2.2943847 -0.45085809 25
0.69807452 2.8987727 -0.46566102 11
0.79033786 3.2793841 -0.40889892 74
0.79143202 3.2814097 -0.29197174 78
0.79509735 3.2940841 -0.17500237 77
0.79545087 3.2930288 -0.058465559 83
0.7954616 3.2905567 0.89622378 59
0.79603732 3.2904241 0.77212268 39
0.79785281 3.2954116 0.65102762 60
0.79748261 3.2913706 0.52972847 50
0.79959393 3.2975695 0.41133282 62
0.79954892 3.2948728 0.292694 54
0.80087429 3.2978227 0.17526317 66
0.80005038 3.2919247 0.057880964 61
0.27578363 1.1304525 -0.30132776 20
nan nan nan 0
0.56010932 2.2924438 -0.45085809 35
0.70818889 2.8963184 -0.46566102 11
0.80178022 3.2766054 -0.40889892 58
0.8040663 3.2834654 -0.29240751 76
0.80659091 3.2912886 -0.17500237 81
0.80813164 3.2950876 -0.05855282 84
0.8080942 3.2924509 0.89751709 55
0.80868036 3.2923567 0.77324659 39
0.80935109 3.2926066 0.65102762 61
0.80896676 3.2885668 0.52972847 46
0.81228608 3.2995775 0.41194132 59
0.81223685 3.2968981 0.29312888 61
0.81238091 3.295007 0.17526317 68
0.81153649 3.2891121 0.057880964 57
0.27043933 1.0919772 -0.29098177 17
0.58350766 2.3543208 -0.55071342 5
0.56928957 2.2952383 -0.45181125 32
0.71829462 2.8938286 -0.46566102 11
0.81321281 3.2737865 -0.40889892 39
0.81672436 3.2854726 -0.29284328 76
0.81928015 3.2932985 -0.17526317 81
0.82083642 3.2970977 -0.058640081 86
0.82074964 3.2942963 0.89881027 57
0.82134658 3.2942414 0.77437049 40
0.82202774 3.2945235 0.65198076 62
0.82163751 3.2905145 0.53050977 50
0.82379878 3.2967219 0.41194132 59
0.82374018 3.2940426 0.29312888 60
0.82508987 3.2969954 0.17552398 66
0.82422721 3.2911088 0.057967354 59
0.2777817 1.1050789 -0.29486153 18
0.60123062 2.3900681 -0.55970466 19
0.57729805 2.293237 -0.45181125 31
0.72839153 2.8913038 -0.46566102 11
0.82463557 3.2709279 -0.40889892 35
0.82940638 3.2874312 -0.29327908 76
0.83199334 3.2952602 -0.17552398 81
0.83234048 3.2942123 -0.058640081 86
0.83224392 3.2914114 0.89881027 54
0.83284062 3.2913542 0.77437049 39
0.83352274 3.2916338 0.65198076 60
0.83311856 3.287626 0.53050977 52
0.83652133 3.2986367 0.41254979 60
0.83645874 3.2959754 0.29356381 62
0.83659363 3.294095 0.17552398 65
0.83694172 3.2930567 0.058053743 61
0.28044367 1.0994226 -0.29356825 18
0.60233963 2.3596308 -0.55296123 4
0.58651423 2.2959633 -0.45276445 30
0.73847961 2.8887436 -0.46566102 10
0.83604819 3.2680297 -0.40889892 33
0.84087664 3.2845161 -0.29327908 78
0.84349084 3.2923357 -0.17552398 83
0.84507591 3.2961295 -0.058727346 86
0.84492838 3.293165 0.90010357 58
0.84553611 3.2931457 0.7754944 38
0.84622914 3.2934585 0.65293401 63
0.84581923 3.2894814 0.53129107 44
0.84803069 3.2956965 0.41254979 60
0.8479588 3.2930355 0.29356381 62
0.84933293 3.2959898 0.17578478 61
0.84843153 3.2901154 0.058053743 61
0.28427964 1.098437 -0.29356825 20
0.62523073 2.4141111 -0.56644809 5
0.59575647 2.2986536 -0.45371762 13
0.74855876 2.8861482 -0.46566102 11
0.84869748 3.2698951 -0.40950739 40
0.8535887 3.2863817 -0.29371485 78
0.85623413 3.2942038 -0.17578478 82
0.85657638 3.2931597 -0.058727346 88
0.85641855 3.2901955 0.90010357 59
0.85825431 3.2948892 0.7766183 39
0.85895824 3.295234 0.65388715 58
0.85729653 3.2865088 0.53129107 41
0.86078322 3.2975185 0.41315827 60
0.8607074 3.2948747 0.29399872 58
0.86083287 3.293005 0.17578478 65
0.86117625 3.2919703 0.058140133 67
0.28811216 1.0974379 -0.29356825 17
0.62127411 2.3647926 -0.55520904 2
nan nan nan 0
0.75988519 2.8882935 -0.46644232 11
0.86136985 3.2717118 -0.41011587 74
0.86632419 3.2881987 -0.29415065 80
0.86772788 3.2911949 -0.17578478 81
0.86934173 3.2949831 -0.058814604 88
0.86913115 3.2918556 0.90139681 55
0.87099493 3.2965839 0.77774227 40
0.87045556 3.2922156 0.65388715 67
0.87002659 3.2882705 0.53207237 49
0.87228847 3.2944939 0.41315827 62
0.87347919 3.2966654 0.29443362 61
0.87360209 3.2948067 0.1760456 61
0.87394416 3.293776 0.058226522 65
0.29194117 1.0964254 -0.29356825 18
0.62952495 2.3626094 -0.55520904 2
nan nan nan 0
0.77123582 2.8903954 -0.46722364 11
0.87534565 3.2782748 -0.41133282 77
0.87908274 3.2899668 -0.29458642 80
0.88050085 3.2929697 -0.1760456 81
0.88213032 3.2967579 -0.058901869 84
0.8818658 3.2934673 0.90269005 58
0.88249689 3.2935233 0.77774227 41
0.88321358 3.2938981 0.65484035 68
0.8827793 3.2899833 0.53285366 41
0.88506997 3.2962217 0.41376674 54
0.88627386 3.2984068 0.29486853 55
0.88509786 3.2917371 0.1760456 59
0.8854363 3.2907052 0.058226522 63
0.29702568 1.1000626 -0.29486153 18
0.65810144 2.4356515 -0.57319152 2
0.63260597 2.3396704 -0.46324947 3
0.78132057 2.8876858 -0.46722364 11
0.8880806 3.2799897 -0.41194132 79
0.89056146 3.2868783 -0.29458642 76
0.89329666 3.2946951 -0.17630641 81
0.89494181 3.2984834 -0.05898913 84
0.89462227 3.2950301 0.90398329 56
0.8952654 3.2951241 0.77886611 39
0.89470595 3.2907948 0.65484035 64
0.89425802 3.2868817 0.53285366 44
0.89787436 3.2979009 0.41437525 59
0.89909154 3.3000989 0.29530343 58
0.89789611 3.2934446 0.17630641 59
0.89823347 3.2924178 0.058312912 61
0.3008638 1.0990191 -0.29486153 18
nan nan nan 0
0.64855498 2.3658502 -0.46896866 3
0.79270208 2.889703 -0.46800491 11
0.9008382 3.2816556 -0.41254979 79
0.90334874 3.2885528 -0.29502219 78
0.90479189 3.2915568 -0.17630641 84
0.90777618 3.3001597 -0.059076395 86
0.90611863 3.291887 0.90398329 59
0.90805596 3.2966764 0.77999008 44
0.9074918 3.2923834 0.65579355 62
0.90703917 3.288501 0.53363502 58
0.90938073 3.2947466 0.41437525 54
0.91193157 3.3017416 0.29573834 55
0.91071719 3.2951035 0.17656721 59
0.9097206 3.2892621 0.058312912 59
0.3059898 1.1026162 -0.29615477 18
0.65162385 2.3464987 -0.55296123 4
0.80399567 2.8932312 -0.57572573 10
0.8027842 2.8869183 -0.46800491 11
0.91361833 3.2832723 -0.41315827 75
0.91615856 3.2901776 -0.29545796 76
0.91761643 3.2931888 -0.17656721 82
0.92063308 3.3017862 -0.059163652 86
0.91890204 3.2933564 0.9052766 54
0.92086816 3.2981787 0.78111392 37
0.92029953 3.2939231 0.65674675 61
0.91984242 3.290071 0.53441632 47
0.92221296 3.2963314 0.41498372 56
0.92479408 3.303335 0.29617327 58
0.9235605 3.2967124 0.17682803 58
0.92254627 3.2908802 0.058399301 55
0.31114456 1.1061908 -0.29744801 18
0.68225098 2.4239368 -0.57206756 9
0.81409001 2.8904071 -0.57572573 31
0.81151694 2.8793454 -0.46722364 11
0.92642057 3.2848396 -0.41376674 79
0.92899066 3.2917533 -0.29589376 74
0.93046319 3.2947707 -0.17682803 82
0.93215275 3.2985528 -0.059163652 86
0.93170661 3.294776 0.90656978 49
0.93237525 3.2949445 0.78111392 38
0.93312919 3.2954133 0.65769988 61
0.93266773 3.2915916 0.53519762 53
0.93371373 3.2930923 0.41498372 54
0.93631923 3.3000867 0.29617327 57
0.9364264 3.2982721 0.17708884 61
0.93596876 3.2922854 0.058485691 63
0.31652164 1.1096876 -0.29874125 20
nan nan nan 0
0.82063448 2.873245 -0.57286614 20
0.82206482 2.8763518 -0.46722364 11
0.93845397 3.2814221 -0.41376674 77
0.94241971 3.2931149 -0.29632953 80
0.9439075 3.2961388 -0.17708884 83
0.94561344 3.2999196 -0.059250917 86
0.94510764 3.2959819 0.90786308 51
0.94578934 3.2961881 0.78223783 37
0.94520116 3.291971 0.65769988 63
0.94472569 3.2881513 0.53519762 49
0.94714862 3.2944174 0.41559219 54
0.94978553 3.3014195 0.29660815 55
0.94850886 3.2948177 0.17708884 64
0.94745529 3.2889984 0.058485691 57
0.32039323 1.1085759 -0.29874125 21
0.87553895 3.0274258 -0.71817523 35
0.82793009 2.8609333 -0.57095981 16
0.83072639 2.8687208 -0.46644232 13
0.95128381 3.2828929 -0.41437525 77
0.9539091 3.2898052 -0.29632953 78
0.95540744 3.2928238 -0.17708884 82
0.95712656 3.2965987 -0.059250917 83
0.95660704 3.2926631 0.90786308 60
0.95728946 3.2928665 0.78223783 38
0.95805758 3.2933645 0.65865314 56
0.95757794 3.2895751 0.53597891 43
0.96003032 3.295856 0.41620067 53
0.96130383 3.298084 0.29660815 61
0.96140218 3.2962797 0.17734964 62
0.96033084 3.2904701 0.05857208 58
0.32561815 1.1120861 -0.30003452 21
0.90527946 3.0898077 -0.7339099 14
0.83929259 2.8627362 -0.571913 18
0.84073502 2.8658035 -0.46644232 12
0.96413535 3.2843142 -0.41498372 75
0.96679074 3.2912345 -0.2967653 80
0.96830374 3.2942591 -0.17734964 79
0.97003865 3.2980337 -0.059338178 86
0.96945834 3.293937 0.90915632 55
0.97015423 3.2941787 0.78336173 37
0.96954775 3.2900002 0.65865314 59
0.97045177 3.2909493 0.53676027 52
0.97152913 3.2924848 0.41620067 54
0.97422099 3.2994857 0.29704309 59
0.97431731 3.2976923 0.17761046 62
0.97322834 3.2918921 0.058658469 58
0.32949805 1.1109427 -0.30003452 23
0.91467327 3.0819585 -0.73278606 17
0.85067749 2.8644941 -0.57286614 21
0.85073346 2.8628514 -0.46644232 11
0.97559375 3.2809289 -0.41498372 77
0.97969395 3.292614 -0.29720107 78
0.98122185 3.2956445 -0.17761046 82
0.98297244 3.2994189 -0.05942544 86
0.9823302 3.2951615 0.91044956 54
0.98164719 3.290772 0.78336173 37
0.98243004 3.2912993 0.65960634 57
0.98193336 3.2875419 0.53676027 49
0.98443735 3.2938285 0.41680917 54
0.98715955 3.3008368 0.29747799 62
0.9872539 3.2990551 0.17787126 65
0.98471326 3.288475 0.058658469 60
0.3347635 1.1144115 -0.30132776 23
0.90999848 3.0274227 -0.72042304 3
0.86067128 2.8615072 -0.57286614 21
0.86072147 2.8598642 -0.46644232 12
0.98847157 3.2822554 -0.41559219 77
0.99261844 3.2939434 -0.29763687 80
0.99271971 3.2921994 -0.17761046 82
0.99448359 3.2959676 -0.05942544 82
0.99522251 3.2963359 0.91174281 56
0.99453712 3.2919893 0.78448564 43
0.99391282 3.2878499 0.65960634 60
0.99483305 3.2888212 0.53754157 45
0.99736661 3.2951219 0.41741762 53
