# .PCD v0.7 - Point Cloud Data file format
VERSION 0.7
FIELDS x y z intensity
SIZE 4 4 4 4
TYPE F F F F
COUNT 1 1 1 1
WIDTH 1355
HEIGHT 1
VIEWPOINT 0 0 0 1 0 0 0
POINTS 1355
DATA ascii
-2.3625588 0.68191761 -0.21178845 12
-2.4305079 0.70198959 -0.13014333 3
-2.2075572 0.63801354 -0.039442439 9
-1.5353745 0.4440341 0.4177205 8
-1.5530676 0.44944474 0.36414522 8
-1.5784163 0.45707902 0.31169257 9
-1.5498978 0.44911388 0.24923801 8
-1.5572519 0.45153943 0.19410528 10
-1.5723203 0.4562062 0.13960591 9
-1.5520083 0.45060635 0.082415417 11
-1.529765 0.4444378 0.026867134 10
-1.7152803 0.49995863 -0.46815729 23
-1.4819653 0.43223417 -0.34728661 5
-1.586879 0.46313414 -0.31359896 3
-1.8665712 0.54511642 -0.30158582 54
-1.9612091 0.57312608 -0.24582614 12
-2.3649452 0.6915583 -0.21222423 11
-2.4280429 0.71046942 -0.13014333 3
nan nan nan 0
-1.5338151 0.44939089 0.4177205 8
-1.5514894 0.45486328 0.36414522 8
-1.5768113 0.46258593 0.31169257 8
-1.5483208 0.45452127 0.24923801 8
-1.5556663 0.45697251 0.19410528 10
-1.5707183 0.4616918 0.13960591 9
-1.5504258 0.45602113 0.082415417 11
-1.5282043 0.44977498 0.026867134 10
-1.7135246 0.505943 -0.46815729 23
-1.475775 0.43602407 -0.34616271 15
-1.5805459 0.46727896 -0.31264576 2
-1.8693928 0.55302966 -0.30236712 46
-1.963955 0.58137715 -0.2464346 12
-2.3672924 0.70122403 -0.21266001 12
nan nan nan 0
-2.1647067 0.64203727 -0.038744342 35
-1.5322372 0.45474216 0.4177205 7
-1.5498921 0.46027619 0.36414522 8
-1.5798917 0.46948534 0.31264576 8
-1.5514585 0.46133071 0.25001931 8
-1.5540615 0.46240005 0.19410528 9
-1.573871 0.46859321 0.14004081 9
-1.5488245 0.46143031 0.082415417 11
-1.5266249 0.45510668 0.026867134 10
-1.7117481 0.51192129 -0.46815729 22
-1.4415715 0.43139541 -0.3382954 21
-1.6494353 0.49391308 -0.32694358 2
-1.8721817 0.56096917 -0.30314845 41
-1.9619137 0.58822912 -0.2464346 12
-2.3648305 0.70948309 -0.21266001 11
-2.3991117 0.7202245 -0.1288393 3
-2.2199068 0.66684872 -0.039791483 17
-1.5352658 0.46147817 0.41901374 8
-1.5482761 0.46568352 0.36414522 7
-1.5782434 0.47499734 0.31264576 8
-1.5498387 0.46674353 0.25001931 8
-1.5571899 0.46925384 0.19471376 9
-1.5722258 0.47408417 0.14004081 9
-1.5519849 0.46827626 0.082676224 11
-1.5298131 0.46187776 0.026953524 10
-1.7099508 0.51789325 -0.46815729 20
-1.4400568 0.43642479 -0.3382954 25
-1.6617926 0.50394088 -0.32980317 2
-1.874938 0.56893492 -0.30392975 47
-1.9598485 0.59507388 -0.2464346 12
-2.3575735 0.71628559 -0.21222423 10
nan nan nan 0
-2.2175655 0.67459351 -0.039791483 14
-1.5336455 0.46683446 0.41901374 8
-1.5513016 0.47250471 0.36526912 8
-1.5812708 0.48193449 0.31359896 8
-1.5482 0.47215062 0.25001931 8
-1.5555425 0.47468662 0.19471376 9
-1.5753254 0.48102403 0.14047572 9
-1.5503408 0.4736909 0.082676224 11
-1.5281098 0.46748173 0.026953524 9
-1.7080412 0.52415705 -0.46815729 18
-1.4291328 0.43883967 -0.33604759 33
-1.8006891 0.55327636 -0.3583988 14
-1.8775605 0.5772543 -0.30471104 36
-1.9623978 0.60371238 -0.24704309 12
nan nan nan 0
-1.7592278 0.54188138 -0.094151795 4
-2.224633 0.68566167 -0.03996601 15
-1.5319242 0.4724524 0.41901374 7
-1.5495594 0.47818738 0.36526912 7
-1.5794939 0.48772687 0.31359896 9
-1.5511776 0.47927982 0.25080064 8
-1.5537922 0.48038477 0.19471376 9
-1.5735517 0.48679468 0.14047572 9
-1.5533642 0.48084655 0.082937032 10
-1.5264686 0.47281298 0.026953524 10
-1.706201 0.53011602 -0.46815729 17
-1.4229399 0.44237918 -0.33492368 43
-1.7237586 0.53623104 -0.34314778 4
-1.8708187 0.58233696 -0.30392975 11
-1.9602785 0.61055875 -0.24704309 12
-2.3571429 0.73461956 -0.21266001 17
-1.7763927 0.55396503 -0.095195025 4
-2.2222259 0.69342297 -0.03996601 14
-1.5348761 0.47923642 0.42030698 7
-1.5525311 0.48504627 0.36639303 7
-1.5777818 0.49323741 0.31359896 8
-1.5494952 0.4846915 0.25080064 8
-1.5521059 0.48580557 0.19471376 9
-1.5765964 0.49377313 0.14091063 9
-1.5516763 0.48626584 0.082937032 10
-1.5295792 0.47963426 0.027039913 9
-1.6951255 0.53317022 -0.46557081 15
-1.4167396 0.44588086 -0.33379978 53
-1.6797415 0.5289759 -0.3345691 2
-1.8640645 0.58737957 -0.30314845 24
-1.9581352 0.61739767 -0.24704309 12
-2.3640647 0.74584037 -0.21353158 18
nan nan nan 0
-2.2245591 0.70268154 -0.040053267 14
-1.5331939 0.48459122 0.42030698 8
-1.5508286 0.49046269 0.36639303 7
-1.5760503 0.49874192 0.31359896 8
-1.5525022 0.49158812 0.25158197 8
-1.5504007 0.4912205 0.19471376 9
-1.5748632 0.49927351 0.14091063 9
-1.5499694 0.49167925 0.082937032 10
-1.5278957 0.48497057 0.027039913 9
-1.6932541 0.53908408 -0.46557081 11
-1.4105325 0.44934469 -0.33267587 60
-1.6591789 0.52887344 -0.33075634 2
-1.8572975 0.59238207 -0.30236712 30
-1.9559681 0.62422913 -0.24704309 12
-2.3567019 0.75257277 -0.21309578 12
-2.3860435 0.76240146 -0.1288393 3
-2.2220926 0.71044242 -0.040053267 14
-1.5360934 0.49141181 0.42160022 7
-1.5491072 0.49587306 0.36639303 7
-1.5742998 0.50424027 0.31359896 8
-1.5554796 0.49851161 0.25236326 7
-1.5534024 0.49814489 0.19532226 9
-1.5731107 0.50476778 0.14091063 9
-1.5529977 0.49861303 0.08319784 10
-1.530953 0.49183002 0.027126303 9
-1.6729735 0.53906626 -0.46039781 7
-1.4089553 0.45426562 -0.33267587 60
-1.7320625 0.55877328 -0.34600735 12
-1.8599184 0.60037881 -0.30314845 38
-1.9537774 0.63105285 -0.24704309 13
-2.3635397 0.76385802 -0.21396735 13
-2.4308774 0.78608924 -0.13144739 3
-2.219599 0.7181946 -0.040053267 15
-1.5343686 0.4967708 0.42160022 7
-1.5473667 0.50127745 0.36639303 7
-1.57253 0.50973254 0.31359896 8
-1.5584277 0.50546187 0.25314459 7
-1.5516541 0.50356424 0.19532226 9
-1.5713391 0.51025587 0.14091063 9
-1.5512478 0.504031 0.08319784 10
-1.529227 0.49717104 0.027126303 9
-1.6389384 0.5344215 -0.45134503 4
-1.4073611 0.45918104 -0.33267587 54
-1.7860928 0.58309513 -0.35744563 29
-1.8578112 0.60686737 -0.30314845 41
-1.9515628 0.637869 -0.24704309 13
-2.3655932 0.77365208 -0.21440314 13
-2.4138818 0.78991097 -0.13066494 3
-2.2170784 0.72593808 -0.040053267 14
-1.5326252 0.50212371 0.42160022 7
-1.5502372 0.50819343 0.36751691 7
-1.5754051 0.51674843 0.31455213 8
-1.5613461 0.51243871 0.25392589 14
-1.5546019 0.51052582 0.19593073 9
-1.5742807 0.51729268 0.14134555 9
-1.549479 0.50944281 0.08319784 10
-1.5322311 0.50406832 0.027212691 9
-1.6921027 0.55829918 -0.46686405 5
-1.4057496 0.46409088 -0.33267587 53
-1.7467617 0.57700986 -0.34982011 16
-1.8603705 0.61489856 -0.30392975 48
-1.9446123 0.64311904 -0.2464346 13
-2.3581495 0.78033996 -0.21396735 14
-2.4205902 0.80147111 -0.13118657 3
nan nan nan 0
-1.5308632 0.50747049 0.42160022 8
-1.5484539 0.51360166 0.36751691 7
-1.5735917 0.52224445 0.31455213 8
-1.5595477 0.51788568 0.25392589 15
-1.5528104 0.51594931 0.19593073 9
-1.5724653 0.52278483 0.14134555 9
-1.5524292 0.51642448 0.083458655 10
-1.5304623 0.50941372 0.027212691 9
-1.7405382 0.58102512 -0.48108983 6
-1.4087421 0.4705385 -0.33379978 47
-1.7493922 0.58465946 -0.35077327 25
-1.8582129 0.62138873 -0.30392975 46
-1.9423555 0.64990306 -0.2464346 12
-2.3648577 0.79172927 -0.21483891 10
-2.4225125 0.81150174 -0.13144739 3
nan nan nan 0
-1.5290823 0.51281112 0.42160022 7
-1.5512704 0.52055353 0.36864081 7
-1.5717591 0.5277341 0.31455213 8
-1.562412 0.52489918 0.25470719 14
-1.5557041 0.52294779 0.19653921 9
-1.5753521 0.52985847 0.14178045 8
-1.5506171 0.52184027 0.083458655 10
-1.5334126 0.5163483 0.02729908 9
-1.7568035 0.59327847 -0.48626286 9
-1.4070911 0.47545305 -0.33379978 44
-1.7426909 0.58919036 -0.34982011 16
-1.8607106 0.62945378 -0.30471104 46
-1.940075 0.65667915 -0.2464346 13
nan nan nan 0
-2.4291232 0.82315809 -0.131969 3
-1.664889 0.56450564 -0.030018136 8
-1.5318568 0.51969719 0.42289349 7
-1.5540575 0.52753145 0.36976472 7
-1.574555 0.53479588 0.31550533 8
-1.5652462 0.53193885 0.25548851 14
-1.5538691 0.52837503 0.19653921 9
-1.5734929 0.5353542 0.14178045 8
-1.5535131 0.52885896 0.083719462 10
-1.5363331 0.52330971 0.02738547 8
-1.7364396 0.59316212 -0.48108983 14
-1.4100331 0.48193756 -0.33492368 42
-1.7406235 0.59526992 -0.34982011 8
-1.8631747 0.63754398 -0.30549237 47
-1.9424664 0.66505492 -0.24704309 13
-2.3781211 0.81467664 -0.21658202 12
-2.430958 0.83325124 -0.1322298 3
nan nan nan 0
-1.5300333 0.52504116 0.42289349 7
-1.5522065 0.5329529 0.36976472 7
-1.5726787 0.54028887 0.31550533 8
-1.5680503 0.5390048 0.25626981 14
-1.5520154 0.53379583 0.19653921 9
-1.5763245 0.54246432 0.14221536 15
-1.5516574 0.53427851 0.083719462 10
-1.539131 0.53056633 0.027471859 13
-1.7296889 0.59794438 -0.47979656 15
-1.4128616 0.48869497 -0.33604759 42
-1.6781313 0.58077711 -0.33742866 3
-1.8608254 0.64436859 -0.30549237 47
-1.9400159 0.67216998 -0.24704309 13
-2.3892384 0.82828206 -0.21788937 27
-2.4278879 0.84215552 -0.1322298 3
-1.6041323 0.55673504 -0.028970992 15
-1.5326613 0.53222984 0.42418674 7
-1.5548449 0.54023749 0.37088862 7
-1.5706878 0.54604942 0.31550533 8
-1.566064 0.54474837 0.25626981 14
-1.5500485 0.53948063 0.19653921 9
-1.5790297 0.54987633 0.14265026 15
-1.5544039 0.54160494 0.08398027 10
-1.5372696 0.5359357 0.027471859 13
-1.7002357 0.59441483 -0.47203705 12
-1.4111472 0.49362382 -0.33604759 38
-1.6760938 0.5866313 -0.33742866 6
-1.8632258 0.65249246 -0.30627367 40
-1.9423411 0.68057883 -0.24765156 14
-2.3346272 0.81848985 -0.21309578 20
-2.4296453 0.85227817 -0.13249062 3
-1.5738764 0.55239749 -0.028447421 7
-1.530794 0.53757668 0.42418674 7
-1.5529498 0.54566163 0.37088862 7
-1.5734026 0.55315667 0.31645852 8
-1.5641532 0.55021161 0.25626981 14
-1.5481559 0.54488808 0.19653921 9
-1.5817988 0.55703926 0.14308518 15
-1.5525039 0.54702753 0.08398027 10
-1.5401043 0.5429607 0.027558248 13
-1.6799358 0.59390676 -0.46686405 12
-1.4140086 0.5001713 -0.33717149 37
-1.7758311 0.628506 -0.3583988 26
-1.8609369 0.65899235 -0.30627367 43
-1.9399536 0.68735468 -0.24765156 17
-2.3176715 0.82164121 -0.21178845 11
-2.4313612 0.86242312 -0.13275142 3
-1.5625159 0.55454385 -0.028272897 5
-1.5289083 0.54291677 0.42418674 7
-1.5510356 0.55107909 0.37088862 7
-1.5714622 0.55864549 0.31645852 8
-1.562223 0.55566818 0.25626981 14
-1.55092 0.55195278 0.1971477 9
-1.5798448 0.56255746 0.14308518 15
-1.550585 0.55244344 0.08398027 10
-1.5381997 0.54833335 0.027558248 13
-1.6687564 0.59651572 -0.46427754 13
-1.4122541 0.50510406 -0.33717149 34
-1.8568099 0.66446859 -0.37555617 34
-1.8632748 0.66714901 -0.307055 42
-1.9375424 0.6941222 -0.24765156 14
-2.333545 0.83644921 -0.21353158 9
-2.4330363 0.87259066 -0.13301224 3
nan nan nan 0
-1.5315497 0.54988253 0.42547998 7
-1.5491025 0.55648983 0.37088862 7
-1.5695026 0.56412762 0.31645852 8
-1.5649209 0.5627892 0.25705114 14
-1.5489841 0.55736315 0.1971477 9
-1.582558 0.56975597 0.14352009 15
-1.5486472 0.55785263 0.08398027 10
-1.5409794 0.55539447 0.027644638 13
-1.6621218 0.60069555 -0.46298429 13
-1.4150641 0.5116874 -0.3382954 32
-1.8637102 0.67428583 -0.37746257 36
-1.8655783 0.67532986 -0.30783629 43
-1.9257755 0.69750118 -0.2464346 12
-2.3352938 0.84628671 -0.21396735 9
-2.4299757 0.88107824 -0.13301224 3
nan nan nan 0
-1.5296209 0.55522525 0.42547998 7
-1.5471505 0.56189382 0.37088862 7
-1.5675238 0.56960273 0.31645852 7
-1.5629468 0.56824839 0.25705114 14
-1.5516927 0.56446332 0.19775617 9
-1.5805596 0.57527667 0.14352009 15
-1.5513823 0.56496364 0.084241085 10
-1.5437286 0.56248158 0.027731029 12
-1.6554782 0.60483629 -0.46169105 13
-1.4178452 0.5182966 -0.33941931 25
-1.8567355 0.67910123 -0.37650937 38
-1.8678474 0.6835351 -0.30861759 40
-1.9140084 0.70080632 -0.24521764 10
-2.3323257 0.85443324 -0.21396735 10
-2.4409499 0.8947103 -0.13379467 2
-2.2278018 0.81702375 -0.040751368 25
-1.5276735 0.56056124 0.42547998 7
-1.5451797 0.56729102 0.37088862 7
-1.565526 0.57507092 0.31645852 8
-1.5655892 0.57540423 0.25783244 14
-1.5497129 0.56987631 0.19775617 9
-1.5832165 0.58251029 0.14395499 15
-1.5494008 0.57037556 0.084241085 10
-1.5417558 0.5678668 0.027731029 13
-1.6488261 0.60893798 -0.46039781 14
-1.4068873 0.51986516 -0.33717149 19
-1.8497498 0.68387622 -0.37555617 38
-1.86545 0.69005096 -0.30861759 41
-1.9022418 0.70403808 -0.24400067 6
-2.329329 0.86256939 -0.21396735 9
-2.4190829 0.89628619 -0.13275142 2
-2.2202487 0.82305747 -0.040664103 15
-1.5257075 0.56589043 0.42547998 7
-1.5477576 0.57437629 0.37201253 7
-1.5681103 0.58224058 0.31741169 7
-1.5635711 0.58086568 0.25783244 14
-1.5523661 0.57701141 0.19836466 9
-1.5811734 0.5880332 0.14395499 15
-1.55208 0.5775218 0.084501892 10
-1.5444491 0.57498926 0.027817419 13
-1.6466904 0.61468977 -0.46039781 14
-1.4141924 0.52818227 -0.33941931 12
-1.838156 0.68689269 -0.37364981 26
-1.8676559 0.6982879 -0.30939892 40
-1.8904763 0.70719624 -0.24278374 5
-2.3356335 0.87418699 -0.21483891 9
-2.4346442 0.91172945 -0.13379467 3
-2.2267249 0.83431065 -0.040838629 16
-1.5237226 0.57121271 0.42547998 7
-1.5457433 0.57977539 0.37201253 6
-1.5660684 0.58771074 0.31741169 7
-1.5661575 0.58805603 0.25861374 13
-1.5503426 0.58242667 0.19836466 9
-1.5837739 0.59530151 0.1443899 15
-1.5500547 0.58293605 0.084501892 9
-1.5424328 0.58037686 0.027817419 12
-1.640016 0.61872923 -0.45910454 14
-1.4579213 0.55032098 -0.35065833 7
-1.8219717 0.68810236 -0.37079024 21
-1.8652071 0.70480299 -0.30939892 40
-1.8833541 0.71203589 -0.24217525 24
-2.3185916 0.87704772 -0.21353158 9
-2.4314468 0.92022234 -0.13379467 3
-2.223799 0.84207827 -0.040838629 15
-1.5262361 0.5782392 0.42677325 7
-1.5482659 0.58689445 0.37313643 6
-1.5640074 0.5931738 0.31741169 8
-1.5640953 0.59351933 0.25861374 14
-1.5529397 0.58959639 0.19897313 9
-1.5816861 0.6008262 0.1443899 15
-1.5480103 0.5883432 0.084501892 10
-1.5450702 0.58753437 0.027903808 13
-1.6378462 0.62445021 -0.45910454 14
-1.487856 0.56756198 -0.35852566 4
-1.8287302 0.69795841 -0.37269661 9
-1.8627353 0.71130943 -0.30939892 27
-1.8808571 0.7186057 -0.24217525 12
-2.3201683 0.88691425 -0.21396735 6
nan nan nan 0
-2.2301841 0.85340899 -0.041013151 12
-1.5242084 0.58356321 0.42677325 7
-1.5462078 0.59229541 0.37313643 6
-1.5665106 0.60038614 0.31836489 7
-1.5620139 0.59897548 0.25861374 13
-1.5508722 0.59501344 0.19897313 9
-1.5795794 0.60634369 0.1443899 15
-1.5506084 0.59553331 0.0847627 10
-1.5429064 0.59319335 0.027903808 13
-1.6310397 0.62871182 -0.4578113 15
-1.5266771 0.58878958 -0.36864081 4
-1.8261596 0.70465636 -0.37269661 4
-1.8462943 0.71279597 -0.307055 8
-1.8596927 0.71834159 -0.23974133 5
nan nan nan 0
nan nan nan 0
-2.1664288 0.83812809 -0.039878745 2
-1.5265635 0.59088922 0.42806649 6
-1.5485698 0.59971797 0.37426034 6
-1.5642996 0.60612369 0.31836489 7
-1.5644127 0.60648161 0.25939506 13
-1.5533079 0.60248846 0.19958161 9
-1.58199 0.61393112 0.14482482 15
-1.5484152 0.60121256 0.0847627 9
-1.5454865 0.60038579 0.027990198 13
-1.6243346 0.63264847 -0.45651805 15
-1.5109938 0.58880806 -0.36526912 4
-1.7505205 0.68249947 -0.35744563 2
-1.8115885 0.70667309 -0.30158582 3
-1.8386811 0.71761131 -0.2373074 3
nan nan nan 0
nan nan nan 0
nan nan nan 0
-1.5289897 0.59797353 0.42935973 6
-1.5464669 0.60511988 0.37426034 7
-1.5667447 0.6133697 0.31931809 7
-1.5622863 0.61193871 0.25939506 13
-1.5511955 0.60790682 0.19958161 9
-1.5798373 0.61944956 0.14482482 15
-1.5509555 0.60843742 0.085023507 10
-1.5433812 0.60577691 0.027990198 13
-1.6221164 0.63831466 -0.45651805 16
-1.5179961 0.5976485 -0.36751691 3
-1.679626 0.66162223 -0.34314778 2
-1.7401913 0.68583041 -0.28986615 2
-1.766912 0.69671768 -0.2281802 3
-1.675815 0.66113484 -0.15426567 2
nan nan nan 0
-1.6722984 0.66042221 -0.030716235 4
-1.5313849 0.60508186 0.43065301 6
-1.5443453 0.6105144 0.37426034 6
-1.5645941 0.61883497 0.31931809 7
-1.5601407 0.61738843 0.25939506 13
-1.5536783 0.61514473 0.2001901 8
-1.5776653 0.62496042 0.14482482 15
-1.5488222 0.61384755 0.085023507 10
-1.5412573 0.61116064 0.027990198 13
-1.6153901 0.64218873 -0.45522478 14
-1.5068464 0.59934241 -0.36526912 3
-1.6727457 0.66566634 -0.34219459 5
-1.6735511 0.66632521 -0.2789278 5
-1.6722594 0.66614908 -0.21601059 3
-1.678124 0.66882461 -0.15470144 6
-1.7005888 0.6781221 -0.09363018 6
-1.6931995 0.6755181 -0.031152545 14
-1.5337492 0.61221421 0.43194625 7
-1.5467292 0.61770827 0.37538424 6
-1.5624244 0.62429261 0.31931809 7
-1.5625616 0.62466371 0.26017636 13
-1.5515215 0.62056434 0.2001901 9
-1.5800987 0.63231432 0.14525972 15
-1.5513054 0.62110615 0.085284315 10
-1.5437553 0.61839592 0.028076587 12
-1.6086568 0.64602369 -0.45393154 15
-1.5047451 0.60459864 -0.36526912 3
-1.6840742 0.67699349 -0.34505415 11
-1.6757967 0.67400575 -0.27970913 14
-1.683736 0.67754036 -0.21783602 10
-1.6803998 0.67653865 -0.15513723 17
-1.702843 0.68591976 -0.093890987 12
-1.6630101 0.67021215 -0.030628972 8
-1.5316029 0.61756426 0.43194625 7
-1.5445635 0.62310368 0.37538424 6
-1.5647873 0.63157982 0.32027125 7
-1.5649509 0.63196349 0.26095769 13
-1.549346 0.62597638 0.2001901 9
-1.5778819 0.63782609 0.14525972 15
-1.553757 0.62838954 0.085545123 9
-1.5415874 0.62378079 0.028076587 12
-1.6019162 0.64981949 -0.4526383 12
-1.5026255 0.60984749 -0.36526912 3
-1.695344 0.68840778 -0.34791371 8
-1.6551322 0.67241603 -0.27658388 9
-1.6767632 0.68154478 -0.21722755 15
-1.6365017 0.66551274 -0.15121521 13
-1.7143134 0.697505 -0.09467341 10
-1.6421394 0.6684736 -0.030279925 4
-1.5339109 0.62472856 0.43323949 6
-1.5468911 0.63032991 0.37650815 6
-1.5625732 0.63703811 0.32027125 7
-1.5627354 0.63742244 0.26095769 13
-1.5471514 0.6313808 0.2001901 8
-1.5802574 0.64521283 0.14569463 14
-1.551554 0.63380939 0.085545123 9
-1.5394006 0.6291582 0.028076587 12
-1.5906998 0.65174496 -0.45005178 8
-1.5004876 0.61508888 -0.36526912 3
-1.6793069 0.68873399 -0.34505415 5
-1.6436372 0.67443985 -0.27502126 6
-1.6514188 0.67796975 -0.21418515 8
-1.6341685 0.67122114 -0.15121521 8
-1.721105 0.70728064 -0.095195025 6
-1.6629144 0.68370682 -0.030716235 4
-1.5317209 0.63007909 0.43323949 7
-1.5446814 0.63572574 0.37650815 6
-1.5648785 0.64435744 0.32122445 7
-1.5650672 0.64475459 0.26173899 13
-1.5495265 0.63866872 0.20079857 8
-1.5779954 0.65072501 0.14569463 14
-1.5539479 0.6411258 0.08580593 9
-1.541816 0.63643533 0.028162977 12
-1.5839522 0.65544677 -0.44875854 6
-1.4983314 0.62032282 -0.36526912 3
-1.6950312 0.70210493 -0.34886691 3
-1.6367105 0.67828244 -0.27423996 3
-1.6261201 0.67422616 -0.21114275 5
-1.6318157 0.67692137 -0.15121521 4
-1.7047902 0.707542 -0.094412602 3
nan nan nan 0
-1.5295122 0.63542205 0.43323949 6
-1.5469519 0.64298379 0.37763205 6
-1.5671518 0.65170056 0.32217765 7
-1.5673667 0.65211087 0.26252028 13
-1.5472876 0.64407361 0.20079857 8
-1.5803127 0.65814435 0.14612953 15
-1.5517005 0.64654619 0.08580593 9
-1.539585 0.64181334 0.028162977 12
-1.5682855 0.65538484 -0.44487876 6
-1.4961571 0.62554926 -0.36526912 3
-1.7831321 0.74590033 -0.36793068 2
-1.707224 0.71449739 -0.2867409 3
-1.619179 0.6779815 -0.21053427 2
-1.6891664 0.70763302 -0.15688033 3
nan nan nan 0
-2.2113371 0.92729056 -0.041187678 33
-1.5272847 0.64075714 0.43323949 6
-1.5446979 0.64837968 0.37763205 6
-1.5648674 0.65716696 0.32217765 7
-1.569634 0.659491 0.26330161 13
-1.5496049 0.65139395 0.20140706 8
-1.5780057 0.66365659 0.14612953 14
-1.5540366 0.6538952 0.086066738 9
-1.541943 0.64912337 0.028249366 12
-1.5793377 0.66648883 -0.44875854 8
-1.4939643 0.630768 -0.36526912 3
-1.893554 0.79986852 -0.39176041 29
-1.891229 0.7992754 -0.31877464 14
-1.6853679 0.71262062 -0.21966147 2
-1.723385 0.72904992 -0.16036656 2
nan nan nan 0
-2.2311044 0.94475067 -0.041623987 19
-1.5294862 0.64796853 0.43453273 6
-1.546911 0.65566903 0.37875596 6
-1.5670828 0.66454166 0.32313082 7
-1.5718687 0.66689485 0.26408291 12
-1.5473217 0.65679908 0.20140706 8
-1.5802642 0.67110789 0.14656444 14
-1.5517446 0.65931582 0.086066738 9
-1.5396676 0.6545018 0.028249366 13
-1.581445 0.67389107 -0.45005178 9
-1.4872718 0.63406837 -0.36414522 3
-1.8726913 0.79877049 -0.38794762 34
-1.861174 0.79424196 -0.31408679 36
-1.9156466 0.81788301 -0.25069398 15
-2.1743073 0.92876661 -0.20350866 11
-2.4181497 1.0334241 -0.13535951 12
-2.2231963 0.95056748 -0.041536722 14
-1.5272149 0.6533035 0.43453273 6
-1.5446129 0.6610648 0.37875596 6
-1.5647534 0.67000777 0.32313082 7
-1.5695311 0.67237765 0.26408291 12
-1.5495813 0.66415137 0.20201553 8
-1.577912 0.67662001 0.14656444 14
-1.5540224 0.66669708 0.086327545 9
-1.5419675 0.66184407 0.028335756 12
-1.5879562 0.68322492 -0.4526383 11
-1.4805743 0.6373297 -0.36302131 3
-1.8563676 0.79947823 -0.38508809 10
-1.8719964 0.8065964 -0.31643069 24
-1.8854355 0.81277716 -0.24704309 18
-2.1893473 0.94424105 -0.20525178 15
-2.4191122 1.043837 -0.13562031 13
-2.2244544 0.96030354 -0.041623987 15
-1.5249252 0.65863049 0.43453273 6
-1.5467682 0.66838509 0.37987986 6
-1.5669104 0.67741346 0.32408401 7
-1.5717072 0.67981279 0.26486424 12
-1.5472535 0.66955638 0.20201553 8
-1.5801115 0.68410277 0.14699936 14
-1.5516857 0.67211753 0.086327545 9
-1.5395315 0.6674912 0.028335756 12
-1.5898709 0.69096565 -0.45393154 11
-1.4737604 0.6408093 -0.36189741 2
-1.8579257 0.80823469 -0.38604125 5
-1.8735559 0.81542301 -0.31721202 33
-1.8778937 0.81770086 -0.2464346 17
-2.131074 0.92838693 -0.20002241 11
-2.4152699 1.0526965 -0.13562031 13
-2.2255023 0.97044832 -0.041711248 15
-1.5269278 0.66614646 0.435826 6
-1.5443081 0.67404974 0.37987986 6
-1.5644171 0.68315196 0.32408401 6
-1.569205 0.68556881 0.26486424 13
-1.5493364 0.67721051 0.20262401 8
-1.5775936 0.68988961 0.14699936 14
-1.5537864 0.67980164 0.086588353 9
-1.5417718 0.67486572 0.028422145 12
-1.5874494 0.69651115 -0.45393154 11
-1.4670534 0.64399141 -0.3607735 2
-1.8595873 0.8166889 -0.38699445 30
-1.870698 0.82195795 -0.31721202 35
-1.8704848 0.82225376 -0.24582614 15
-2.1369393 0.93983072 -0.200894 12
-2.4161508 1.0631318 -0.13588113 4
-2.222101 0.97821087 -0.041711248 9
-1.5245934 0.67147237 0.435826 7
-1.5464042 0.6814009 0.38100377 6
-1.5620228 0.68860859 0.32408401 7
-1.5713211 0.69303519 0.26564553 13
-1.546963 0.68261451 0.20262401 8
-1.5797327 0.69740385 0.14743426 14
-1.551404 0.68522125 0.086588353 9
-1.5394067 0.68024337 0.028422145 12
-1.5850084 0.70204806 -0.45393154 11
-1.4603422 0.6471346 -0.35964957 2
-1.8612123 0.82516438 -0.38794762 37
-1.8678175 0.82848293 -0.31721202 38
-1.8721392 0.830791 -0.2464346 16
-2.019834 0.89675474 -0.18999954 7
-2.4443684 1.0857478 -0.13770677 4
nan nan nan 0
-1.5266533 0.6787523 0.43711925 6
-1.5440164 0.68679464 0.38100377 6
-1.5640941 0.69605249 0.32503721 7
-1.5734038 0.70052457 0.26642683 12
-1.5491042 0.69002968 0.2032325 8
-1.5818384 0.70494145 0.14786917 14
-1.5535631 0.69266576 0.08684916 9
-1.5415884 0.68764937 0.028508535 12
-1.5825483 0.70757657 -0.45393154 11
-1.4536271 0.65023881 -0.35852566 2
-1.8628006 0.8336612 -0.38890082 36
-1.8694216 0.83701599 -0.31799331 38
-1.8692278 0.83732086 -0.2464346 16
-1.9894191 0.89157748 -0.18738484 5
-2.4633443 1.1044879 -0.13901082 2
nan nan nan 0
-1.5286813 0.68605477 0.43841249 7
-1.5416095 0.6921801 0.38100377 6
-1.5616548 0.70150793 0.32503721 7
-1.5709491 0.70601249 0.26642683 12
-1.5466862 0.69543278 0.2032325 8
-1.579368 0.71045887 0.14786917 14
-1.5511358 0.69808453 0.08684916 9
-1.5391787 0.6930263 0.028508535 12
-1.5800686 0.71309632 -0.45393154 11
-1.4557889 0.65731382 -0.35964957 3
-1.8598793 0.84015852 -0.38890082 42
-1.8664886 0.84353638 -0.31799331 40
-1.8662938 0.8438406 -0.2464346 17
-1.9772184 0.89441061 -0.18651327 4
-2.486768 1.1254324 -0.14057568 2
-1.6561275 0.74985915 -0.031065281 3
-1.5306766 0.69337958 0.43970576 6
-1.5436215 0.69956815 0.38212767 6
-1.5636668 0.70898169 0.32599038 7
-1.5729724 0.71353197 0.26720816 12
-1.5442493 0.70082754 0.2032325 7
-1.5814137 0.71802682 0.14830408 14
-1.5532357 0.70555979 0.087109968 9
-1.5413015 0.70046324 0.028594924 11
-1.5819651 0.72060961 -0.45522478 11
-1.4534855 0.66239142 -0.35964957 3
-1.8614012 0.84868175 -0.38985398 42
-1.8680259 0.85209602 -0.31877464 39
-1.8678517 0.85241044 -0.24704309 17
-2.0103328 0.91785693 -0.18999954 7
-2.4782827 1.1320313 -0.14031486 2
-1.6580471 0.75771344 -0.031152545 4
-1.5326395 0.70072669 0.440999 7
-1.5411702 0.70495218 0.38212767 6
-1.5611825 0.71443558 0.32599038 6
-1.5704722 0.71901834 0.26720816 12
-1.5417935 0.70621365 0.2032325 7
-1.583426 0.72561771 0.148739 13
-1.5507634 0.71097732 0.087109968 9
-1.5432676 0.70819271 0.028681314 11
-1.5793133 0.72640294 -0.45522478 11
-1.4554739 0.66975105 -0.3607735 4
-1.8627367 0.8575511 -0.39080721 45
-1.8693757 0.86100286 -0.31955594 40
-1.864715 0.85925078 -0.24704309 18
-2.0114784 0.92730427 -0.19043529 8
-2.478651 1.1431984 -0.14057568 2
-1.6552587 0.76378542 -0.031152545 3
-1.5300609 0.70633942 0.440999 6
-1.5429991 0.71263897 0.38325158 6
-1.563009 0.72221154 0.32694358 7
-1.5678263 0.72476953 0.26720816 12
-1.543699 0.71394312 0.20384097 8
-1.5807558 0.73141634 0.148739 14
-1.5481471 0.71665639 0.087109968 9
-1.5407861 0.71357542 0.028681314 11
-1.576768 0.73191136 -0.45522478 11
-1.4531271 0.67482746 -0.3607735 4
-1.8597319 0.864048 -0.39080721 42
-1.8708376 0.86960477 -0.32033727 40
-1.8662041 0.8678472 -0.24765156 18
-2.0127456 0.93642122 -0.19087109 15
-2.4791722 1.1539506 -0.14083648 2
nan nan nan 0
-1.5319641 0.71371561 0.44229224 6
-1.5405022 0.71802068 0.38325158 6
-1.5649271 0.72973746 0.32789677 6
-1.5697625 0.73232579 0.26798946 12
-1.5411975 0.71932727 0.20384097 7
-1.5827063 0.73903728 0.1491739 13
-1.5456361 0.72205603 0.087109968 8
-1.5428147 0.72106618 0.028767703 11
-1.5698299 0.73536205 -0.45393154 11
-1.4551743 0.68196321 -0.36189741 4
-1.8611486 0.87261802 -0.39176041 41
-1.8677906 0.87612993 -0.32033727 45
-1.8631635 0.87435627 -0.24765156 17
-1.9959382 0.93709064 -0.18956374 16
-2.4796484 1.1647203 -0.14109729 2
-2.2245049 1.0453503 -0.042234819 31
-1.5294633 0.71905881 0.44229224 6
-1.5423951 0.72546721 0.38437548 6
-1.5623703 0.73519564 0.32789677 6
-1.5671966 0.73780084 0.26798946 12
-1.5431671 0.72681731 0.20444946 8
-1.580117 0.74455738 0.1491739 14
-1.5476227 0.72957611 0.087370776 9
-1.5402883 0.72644717 0.028767703 11
-1.5672535 0.74083728 -0.45393154 11
-1.4483807 0.68495572 -0.3607735 4
-1.8580914 0.87910938 -0.39176041 40
-1.8691847 0.88475722 -0.32111859 41
-1.8645854 0.88297862 -0.24826005 17
-1.9791508 0.9376542 -0.1882564 13
-2.4845917 1.1776459 -0.14161891 2
-2.2343941 1.0595349 -0.042496607 21
-1.5313077 0.7264635 0.44358552 6
-1.5486562 0.73502487 0.38662329 6
-1.5642283 0.74275023 0.32884994 6
-1.5690725 0.745386 0.26877078 12
-1.545103 0.73432988 0.20505793 8
-1.5820067 0.7522074 0.14960881 13
-1.5450666 0.73497385 0.087370776 8
-1.5422574 0.73396772 0.028854093 11
-1.5646578 0.7463035 -0.45393154 11
-1.4415836 0.68790901 -0.35964957 3
-1.8594407 0.88770455 -0.39271358 44
-1.8705413 0.89340502 -0.32189989 45
-1.8614919 0.88948184 -0.24826005 16
-1.9758656 0.94455701 -0.1882564 10
-2.4849703 1.1884661 -0.14187972 2
-2.2216628 1.0630125 -0.042322084 15
-1.5287627 0.73180431 0.44358552 6
-1.5592637 0.74673939 0.38999504 6
-1.5616261 0.74820584 0.32884994 6
-1.5664611 0.75085855 0.26877078 12
-1.5425303 0.73971885 0.20505793 7
-1.5793713 0.75772506 0.14960881 13
-1.5469931 0.74252325 0.087631583 8
-1.539686 0.73934668 0.028854093 11
-1.5620432 0.7517606 -0.45393154 11
-1.4347841 0.69082332 -0.35852566 4
-1.8607527 0.89631987 -0.39366677 46
-1.8674114 0.89992893 -0.32189989 40
-1.8628459 0.89812946 -0.24886853 16
-1.9725565 0.95144832 -0.1882564 11
-2.4898009 1.201473 -0.14240134 2
-2.2224407 1.0729346 -0.042409342 15
-1.530548 0.73923683 0.44487876 6
-1.565421 0.75641704 0.39224282 13
-1.5590048 0.75365233 0.32884994 6
-1.5682764 0.75847208 0.26955208 12
-1.5444062 0.74726033 0.20566641 7
-1.5812002 0.76540375 0.15004371 13
-1.5443918 0.74791873 0.087631583 8
-1.5415949 0.74689645 0.028940482 11
-1.5550648 0.75509894 -0.4526383 11
-1.4235991 0.69156969 -0.35627785 4
-1.8620272 0.90495521 -0.39461994 45
-1.8687 0.90860146 -0.32268122 42
-1.8596995 0.90462655 -0.24886853 17
-1.9916172 0.96922612 -0.19043529 11
-2.4945707 1.2145282 -0.14292295 2
-2.2231765 1.082875 -0.042496607 15
-1.5279583 0.74457496 0.44487876 6
-1.575909 0.76828182 0.39561453 13
-1.5607764 0.76124144 0.32980317 6
-1.5700576 0.76610756 0.27033341 12
-1.5462481 0.75482386 0.2062749 7
-1.5829947 0.77310443 0.15047863 13
-1.546258 0.75549716 0.087892391 8
-1.5389782 0.75227308 0.028940482 11
-1.5524197 0.76052248 -0.4526383 11
-1.4168016 0.69439065 -0.35515395 4
-1.8632641 0.91361028 -0.39557317 39
-1.8699508 0.91729379 -0.32346252 40
-1.8565304 0.91111261 -0.24886853 17
-2.0105777 0.9871484 -0.1926142 6
-2.4947972 1.2254298 -0.14318375 2
-2.2238696 1.0928335 -0.042583872 15
-1.5296842 0.75203484 0.446172 6
-1.5819614 0.77807856 0.39786234 13
-1.5669174 0.77101898 0.33170953 7
-1.5673739 0.77158338 0.27033341 12
-1.5436039 0.76021665 0.2062749 7
-1.5802865 0.77862537 0.15047863 13
-1.54809 0.76309764 0.088153206 9
-1.5408267 0.75985163 0.029026872 11
-1.5497553 0.76593679 -0.4526383 11
-1.4143692 0.69933194 -0.35515395 4
-1.864463 0.9222849 -0.39652634 39
-1.8711638 0.92600626 -0.32424384 40
-1.8533387 0.91758752 -0.24886853 18
-2.0249734 1.003004 -0.19435731 12
-2.4949789 1.236348 -0.14344457 2
-2.2245204 1.10281 -0.042671129 14
-1.5270499 0.75736982 0.446172 6
-1.5836002 0.78576148 0.39898625 13
-1.5774059 0.78303111 0.3345691 6
-1.5690942 0.77924645 0.27111471 12
-1.5453854 0.76780844 0.20688337 7
-1.5820193 0.78635395 0.15091355 13
-1.5498878 0.77072012 0.088414013 8
-1.5426408 0.76745224 0.029113261 11
-1.5470723 0.7713418 -0.4526383 11
-1.4162791 0.70643938 -0.35627785 4
-1.861232 0.92878741 -0.39652634 39
-1.8723384 0.93473792 -0.32502511 38
-1.8501245 0.92405134 -0.24886853 20
-2.0303714 1.014519 -0.19522887 12
-2.4951141 1.247282 -0.14370537 2
-2.2251287 1.1128047 -0.042758394 15
-1.5287162 0.76485676 0.4474653 6
-1.5808476 0.7912845 0.39898625 13
-1.5878294 0.79512572 0.33742866 12
-1.57078 0.78693098 0.27189603 12
-1.5471326 0.77542186 0.20749186 7
-1.5792648 0.79187143 0.15091355 13
-1.5516512 0.77836436 0.088674821 8
-1.5398177 0.77310109 0.029113261 11
-1.5442349 0.77700692 -0.4526383 11
-1.4136804 0.71162558 -0.35627785 4
-1.8621994 0.93781078 -0.39747953 40
-1.8688998 0.94159412 -0.32502511 41
-1.8467253 0.93082619 -0.24886853 15
-2.0221915 1.0197113 -0.19479308 7
-2.4949837 1.2586677 -0.14396618 2
-2.2254982 1.1232049 -0.042845655 15
-1.5302141 0.77263159 0.44875854 6
-1.5822856 0.79926997 0.40011016 12
-1.5980464 0.80758142 0.34028822 12
-1.5678853 0.79268289 0.27189603 12
-1.5487086 0.7833271 0.20810033 7
-1.5807962 0.79990333 0.15134846 13
-1.5532428 0.78630149 0.088935629 8
-1.5415695 0.78073013 0.029199651 10
-1.5415132 0.78239256 -0.4526383 11
-1.4068437 0.7143501 -0.35515395 3
-1.8632904 0.94652826 -0.3984327 41
-1.8700045 0.95034957 -0.32580644 40
-1.8478887 0.93951601 -0.24947701 15
-2.0008612 1.0177308 -0.19304997 5
-2.4905751 1.2673692 -0.14396618 2
-2.2260189 1.1332349 -0.04293292 16
-1.5275079 0.77796835 0.44875854 6
-1.579486 0.80478829 0.40011016 12
-1.5995907 0.81538379 0.34124142 12
-1.5695081 0.80039459 0.27267733 12
-1.5503856 0.79098368 0.20870881 7
-1.5779945 0.80541652 0.15134846 13
-1.5549356 0.7939893 0.089196436 8
-1.5432868 0.78838068 0.02928604 10
-1.5387727 0.78776872 -0.4526383 10
-1.4043416 0.71925658 -0.35515395 3
-1.8643434 0.95526481 -0.3993859 39
-1.8754653 0.96137691 -0.32736906 39
-1.8445979 0.9459607 -0.24947701 16
-1.9840015 1.0178879 -0.19174264 26
-2.4861357 1.2760552 -0.14396618 2
-2.2264969 1.1432816 -0.043020178 15
-1.5290792 0.78550255 0.45005178 6
-1.5810003 0.81252378 0.40123406 13
-1.6010997 0.82320678 0.34219459 12
-1.5667048 0.80586833 0.27267733 12
-1.5476151 0.79639077 0.20870881 8
-1.579602 0.81319976 0.15178336 13
-1.5521547 0.79941213 0.089196436 8
-1.5449696 0.79605275 0.029372429 11
-1.5360136 0.79313523 -0.4526383 11
-1.3974937 0.72191817 -0.35403004 3
-1.8697183 0.96627373 -0.40129229 39
-1.8764851 0.97018582 -0.32815036 38
-1.845693 0.95467383 -0.2500855 17
-1.9671648 1.0179397 -0.19043529 20
-2.4816666 1.2847255 -0.14396618 2
-2.2224925 1.1510465 -0.043020178 14
-1.5263278 0.79083526 0.45005178 7
-1.5781543 0.81803751 0.40123406 13
-1.6025738 0.83105028 0.34314778 13
-1.5682659 0.8136065 0.27345866 12
-1.5492307 0.80407435 0.2093173 7
-1.5811745 0.82100397 0.15221827 13
-1.5537857 0.807127 0.089457244 8
-1.5466173 0.80374616 0.029458819 11
-1.5375193 0.80072308 -0.45393154 10
-1.3906444 0.72454077 -0.35290614 3
-1.8706865 0.97506303 -0.40224546 39
-1.8818449 0.98129684 -0.32971299 39
-1.8467494 0.96340615 -0.25069398 17
-1.9503523 1.0178865 -0.18912795 9
-2.4771669 1.2933804 -0.14396618 2
-2.222892 1.1611122 -0.043107443 14
-1.5278386 0.79839516 0.45134503 6
-1.579607 0.82579857 0.40235797 13
-1.5996631 0.83663923 0.34314778 12
-1.5697922 0.82136536 0.27423996 12
-1.5508113 0.81177878 0.20992577 7
-1.5827116 0.82882905 0.15265319 13
-1.5509588 0.81254584 0.089457244 8
-1.5482302 0.81146073 0.029545208 10
-1.5347149 0.80608511 -0.45393154 11
-1.3837941 0.72712439 -0.35178223 3
-1.8759607 0.98615468 -0.40415183 40
-1.88715 0.99245715 -0.33127561 64
-1.8477674 0.97215742 -0.25130248 18
-1.9467874 1.0246882 -0.18912795 6
-2.4726369 1.3020195 -0.14396618 2
-2.2232485 1.1711944 -0.043194704 15
-1.5293152 0.80597532 0.4526383 6
-1.5767148 0.83130747 0.40235797 13
-1.6010742 0.84450787 0.34410098 12
-1.5712833 0.82914484 0.27502126 12
-1.5479683 0.81718719 0.20992577 7
-1.5842134 0.83667493 0.15308809 12
-1.5525279 0.82028741 0.089718051 8
-1.5452456 0.81712985 0.029545208 10
-1.5274825 0.80944312 -0.4526383 10
-1.3769425 0.72966897 -0.35065833 3
-1.8725069 0.992697 -0.40415183 33
-1.8880372 1.0013524 -0.33205694 38
-1.8487464 0.98092741 -0.25191092 20
-1.9387991 1.0291423 -0.18869218 6
-2.4636672 1.3083007 -0.14370537 2
-2.2235618 1.1812934 -0.043281965 15
-1.5307574 0.81357545 0.45393154 6
-1.578105 0.83909339 0.40348187 12
-1.6024501 0.85239655 0.34505415 12
-1.5683795 0.83462453 0.27502126 12
-1.549487 0.82491785 0.21053427 8
-1.5856795 0.84454125 0.153523 13
-1.5496551 0.82570171 0.089718051 8
-1.546939 0.82460117 0.029631598 11
-1.5205299 0.81222838 -0.45134503 11
-1.374387 0.73447096 -0.35065833 2
-1.8733591 1.0015415 -0.40510502 37
-1.8845303 1.0079368 -0.33205694 39
-1.849687 0.98971617 -0.25251943 21
-1.9439778 1.0406049 -0.18956374 7
-2.4590852 1.3168927 -0.14370537 2
-2.2282383 1.1937696 -0.043456491 16
-1.5279081 0.81891388 0.45393154 6
-1.5794603 0.84689915 0.40460578 12
-1.5994648 0.85798496 0.34505415 12
-1.5698081 0.8424294 0.27580258 12
-1.5465981 0.83032155 0.21053427 7
-1.5871102 0.85242808 0.1539579 13
-1.5511619 0.83346939 0.089978859 8
-1.5440513 0.82999599 0.029631598 10
-1.5134331 0.81524062 -0.45005178 14
-1.3589482 0.7323302 -0.34728661 2
-1.8698516 1.0080746 -0.40510502 39
-1.8766537 1.0121646 -0.33127561 41
-1.8505884 0.99852329 -0.2531279 22
-1.9622493 1.0592146 -0.19174264 5
-2.4412932 1.3183508 -0.14292295 2
-2.2284558 1.2039163 -0.043543749 16
-1.5292891 0.82653862 0.45522478 6
-1.5764945 0.8524074 0.40460578 12
-1.6007774 0.86589819 0.34600735 12
-1.5668581 0.84790391 0.27580258 12
-1.5480547 0.83807784 0.21114275 7
-1.5841249 0.85796291 0.1539579 13
-1.548243 0.83887887 0.089978859 8
-1.5455399 0.83776313 0.029717987 10
-1.5063339 0.81821311 -0.44875854 15
-1.3692261 0.74404806 -0.35065833 2
-1.8663214 1.0145955 -0.40510502 39
-1.8731092 1.0187092 -0.33127561 40
-1.8470917 1.004977 -0.2531279 22
-1.9760396 1.0755827 -0.19348575 11
-2.4498317 1.3340281 -0.14370537 2
-2.2286298 1.2140795 -0.043631013 16
-1.5306356 0.8341831 0.45651805 6
-1.5777869 0.86023736 0.40572968 12
-1.5977452 0.8714807 0.34600735 12
-1.5682238 0.85573363 0.27658388 12
-1.5451198 0.84347647 0.21114275 7
-1.585492 0.86587477 0.15439282 13
-1.5496873 0.84667212 0.090239674 8
-1.542606 0.84315294 0.029717987 11
-1.5034688 0.82346618 -0.44875854 20
-1.3495297 0.73945832 -0.34616271 2
-1.8670722 1.0234632 -0.40605819 38
-1.873872 1.0276159 -0.33205694 42
-1.8479235 1.0138056 -0.25373638 23
-1.981006 1.0872669 -0.19435731 10
-2.4626675 1.3521842 -0.1447486 2
-2.2287602 1.2242582 -0.043718275 16
-1.5319474 0.84184706 0.4578113 6
-1.5790437 0.86808676 0.40685359 12
-1.5989943 0.8794179 0.34696054 12
-1.565227 0.86120254 0.27658388 12
-1.5465138 0.85125798 0.21175122 7
-1.586823 0.8738066 0.15482773 13
-1.5467224 0.85207647 0.090239674 8
-1.5440316 0.85094547 0.029804377 11
-1.4963572 0.82637435 -0.4474653 16
-1.3512048 0.74652064 -0.34728661 2
-1.8634883 1.0299742 -0.40605819 38
-1.8702736 1.0341507 -0.33205694 40
-1.848716 1.022652 -0.25434485 23
-1.9815568 1.0965871 -0.19479308 8
-2.4710379 1.3680277 -0.14553103 2
-2.2288463 1.2344528 -0.04380554 16
-1.5332241 0.84953022 0.45910454 6
-1.5802653 0.87595534 0.40797749 12
-1.6002071 0.8873744 0.34791371 12
-1.56653 0.86905676 0.27736521 12
-1.5478723 0.85905939 0.21235971 7
-1.5837634 0.87934029 0.15482773 13
-1.5481037 0.85989487 0.090500481 8
-1.545422 0.85875827 0.029890768 11
-1.4934635 0.83159256 -0.4474653 16
nan nan nan 0
-1.8641695 1.0388622 -0.40701142 39
-1.8709658 1.0430777 -0.33283821 39
-1.8494693 1.0315164 -0.25495335 24
-1.9777168 1.1034973 -0.19479308 6
-2.4793272 1.3839458 -0.14631344 2
-2.2288885 1.2446629 -0.043892797 16
-1.5344659 0.85723251 0.46039781 6
-1.5814509 0.88384306 0.4091014 12
-1.6013838 0.89535004 0.34886691 12
-1.5677971 0.87693048 0.27814651 12
-1.5448642 0.86445731 0.21235971 7
-1.5850306 0.88729632 0.15526263 13
-1.5494493 0.86773324 0.090761289 8
-1.5424149 0.8641476 0.029890768 10
-1.4905515 0.83680063 -0.4474653 15
nan nan nan 0
-1.8648108 1.0477673 -0.40796459 39
-1.8716185 1.0520222 -0.33361953 41
-1.8501834 1.0403985 -0.2555618 24
-1.9781941 1.1128362 -0.19522887 5
-2.4918871 1.4023876 -0.14735669 2
-2.2288864 1.2548882 -0.043980062 16
-1.5314642 0.86258358 0.46039781 6
-1.5783561 0.88935804 0.4091014 12
-1.6025246 0.90334475 0.34982011 12
-1.569028 0.88482368 0.2789278 12
-1.5461597 0.87228316 0.21296819 7
-1.5862615 0.89527202 0.15569754 13
-1.5464108 0.87313658 0.090761289 7
-1.5435898 0.87225449 0.029977158 10
-1.4874746 0.84225816 -0.4474653 14
-1.3643763 0.77287036 -0.35290614 2
-1.8652282 1.0570151 -0.40891778 39
-1.8720464 1.0613105 -0.33440083 40
-1.8463576 1.0471727 -0.2555618 24
-1.9784343 1.1225373 -0.19566463 6
-2.4910727 1.4139763 -0.14761749 2
-2.2286193 1.2655175 -0.044067323 16
-1.5324919 0.87057662 0.46169105 6
-1.5793216 0.89754421 0.4102253 12
-1.5992029 0.90921217 0.34982011 11
-1.5657746 0.89056855 0.2789278 12
-1.5429522 0.87794423 0.21296819 7
-1.5872983 0.90354407 0.15613246 13
-1.5475392 0.88126951 0.091022097 8
-1.5448796 0.88011199 0.030063547 11
-1.4845254 0.84744525 -0.4474653 16
-1.3743625 0.78487653 -0.35627785 2
-1.8700509 1.0683892 -0.41082415 40
-1.872618 1.0702894 -0.33518216 40
-1.8469994 1.0560749 -0.2561703 24
-1.9788275 1.1319096 -0.19610043 6
-2.4861217 1.4226631 -0.14761749 2
-2.2328653 1.2782568 -0.044241846 16
-1.5336349 0.87832099 0.46298429 6
-1.5804064 0.90547365 0.41134921 12
-1.6002778 0.91722977 0.35077327 12
-1.5669405 0.89848524 0.27970913 11
-1.5441831 0.88579422 0.21357667 7
-1.5841348 0.90907925 0.15613246 13
-1.5487839 0.88915205 0.091282904 8
-1.541798 0.88549918 0.030063547 11
-1.4815582 0.85262209 -0.4474653 21
-1.3589474 0.78237653 -0.35290614 2
-1.8705634 1.07736 -0.41177732 39
-1.8731494 1.079285 -0.33596346 40
-1.8476014 1.064994 -0.25677878 25
-1.9791793 1.1412983 -0.1965362 7
-2.4811406 1.4313326 -0.14761749 2
-2.2327199 1.288542 -0.044329111 15
-1.5347424 0.8860839 0.46427754 6
-1.5772362 0.91098475 0.41134921 12
-1.6013162 0.92526573 0.35172647 12
-1.5680704 0.90642083 0.28049043 12
-1.545378 0.89366341 0.21418515 7
-1.5852633 0.91709763 0.15656736 12
-1.5456707 0.89455295 0.091282904 8
-1.5430239 0.89338058 0.030149937 10
-1.478573 0.85778844 -0.4474653 35
-1.3562082 0.7871154 -0.35290614 2
-1.8710361 1.0863476 -0.41273054 39
-1.8736414 1.0882975 -0.33674479 38
-1.8438725 1.0714368 -0.25677878 25
-1.9837956 1.1532066 -0.19740775 8
-2.4761293 1.4399847 -0.14761749 2
-2.2325296 1.2988415 -0.044416368 16
-1.5358144 0.89386523 0.46557081 6
-1.578257 0.91893625 0.41247311 12
-1.6023179 0.93332016 0.35267967 12
-1.5691638 0.91437536 0.28127176 11
-1.5465366 0.90155172 0.21479362 7
-1.5863552 0.92513502 0.15700227 13
-1.5468516 0.90245903 0.091543712 7
-1.539739 0.89903003 0.030149937 10
-1.4754192 0.86320198 -0.4474653 40
-1.3701334 0.80192494 -0.35740176 2
-1.8670417 1.0931981 -0.41273054 38
-1.8739011 1.0976534 -0.33752608 38
-1.844215 1.0806969 -0.25738728 25
-1.9881498 1.1655079 -0.19827931 8
-2.475142 1.4515765 -0.1478783 2
-2.2320659 1.3095454 -0.044503633 16
-1.5325278 0.89948833 0.46557081 6
-1.5790795 0.92718148 0.41359702 12
-1.6031185 0.94167268 0.35363284 12
-1.5658019 0.92012054 0.28127176 12
-1.5432218 0.90721399 0.21479362 8
-1.5829538 0.93094313 0.15700227 12
-1.5435336 0.90812254 0.091543712 8
-1.5409 0.9069351 0.030236326 10
-1.4723971 0.86834693 -0.4474653 45
-1.375718 0.81165409 -0.35964957 2
-1.8674412 1.1022032 -0.41368371 39
-1.8700582 1.1041878 -0.33752608 39
-1.8447045 1.0896518 -0.25799572 25
-1.9926456 1.1775087 -0.19915086 7
-2.4700599 1.4602075 -0.1478783 2
-2.2360876 1.3224185 -0.044678159 16
-1.5335356 0.90729171 0.46686405 6
-1.5800261 0.93516946 0.41472092 12
-1.6040453 0.94976377 0.35458606 12
-1.5668296 0.92809749 0.28205305 11
-1.5443151 0.91512537 0.21540211 7
-1.5839792 0.93900305 0.15743718 13
-1.544649 0.91605186 0.091804519 8
-1.5420243 0.91485918 0.030322714 10
-1.4693569 0.87348121 -0.4474653 27
-1.3477514 0.80150938 -0.35290614 2
-1.867801 1.1112249 -0.41463691 38
-1.8704363 1.1132348 -0.33830741 41
-1.8451538 1.0986234 -0.25860423 25
-1.9970821 1.1895552 -0.20002241 7
-2.4692371 1.4713767 -0.1481391 2
-2.2357521 1.3327757 -0.04476542 17
-1.5303591 0.91263926 0.46686405 6
-1.5767522 0.94067913 0.41472092 12
-1.6007202 0.95535707 0.35458606 12
-1.5635805 0.93356109 0.28205305 12
-1.545372 0.92305535 0.21601059 7
-1.5849677 0.94708139 0.1578721 12
-1.5457278 0.92400014 0.092065327 8
-1.5388215 0.92023629 0.030322714 10
-1.4662989 0.87860489 -0.4474653 11
nan nan nan 0
-1.86812 1.120262 -0.41559011 39
-1.870774 1.1222975 -0.33908871 43
-1.8455628 1.1076112 -0.2592127 26
-2.0014586 1.2016469 -0.200894 6
-2.4683666 1.4825579 -0.14839992 2
-2.2353709 1.3431463 -0.044852681 18
-1.5354433 0.92295218 0.46945056 6
-1.5776345 0.94868803 0.41584483 12
-1.6015817 0.96346909 0.35553923 12
-1.5645435 0.94155985 0.28283435 12
-1.5421406 0.92844403 0.21601059 7
-1.581652 0.95260817 0.1578721 12
-1.5467699 0.93196696 0.092326134 7
-1.5398813 0.92818284 0.030409103 10
-1.4632232 0.88371795 -0.4474653 9
-1.888395 1.1409515 -0.50013769 28
-1.8683989 1.1293153 -0.41654328 39
-1.8710711 1.1313763 -0.33987004 42
-1.8459319 1.1166155 -0.25982118 26
-2.0100362 1.2163624 -0.20220132 5
-2.4802623 1.5015085 -0.14944315 2
-2.2349453 1.3535309 -0.044939946 18
-1.5446048 0.9358145 0.47333032 6
-1.5784796 0.95671445 0.4169687 12
-1.6024058 0.97159857 0.35649243 12
-1.5654699 0.94957668 0.28361568 11
-1.543133 0.93639612 0.21661907 7
-1.5825752 0.96070808 0.158307 12
-1.5477751 0.93995237 0.092586942 8
-1.5409046 0.93614817 0.030495493 10
-1.4601295 0.88882011 -0.4474653 5
-1.8760785 1.1424681 -0.49788988 30
-1.8686372 1.1383839 -0.4174965 39
-1.8713278 1.140471 -0.34065136 39
-1.8462602 1.1256356 -0.26042965 26
-2.0185351 1.2311523 -0.20350866 4
-2.4835308 1.5153588 -0.14996478 2
-2.2344739 1.3639287 -0.045027204 18
-1.553695 0.94875169 0.47721007 13
-1.5792882 0.96475846 0.41809264 12
-1.6031924 0.97974551 0.35744563 11
-1.5663592 0.95761132 0.28439698 11
-1.5440888 0.9443664 0.21722755 7
-1.5834609 0.96882606 0.15874191 12
-1.5487432 0.94795609 0.092847757 8
-1.5417262 0.94440091 0.030581882 10
-1.4527456 0.89163929 -0.446172 5
-1.896993 1.1643013 -0.50463331 25
-1.8688346 1.1474679 -0.41844967 41
-1.8715434 1.149581 -0.34143266 41
-1.8465483 1.1346718 -0.26103815 25
-2.0269554 1.2460161 -0.20481598 5
-2.4994922 1.5370967 -0.15126881 2
-2.2382152 1.3769593 -0.04520173 17
-1.5668269 0.96429545 0.4823831 13
-1.5759109 0.97026533 0.41809264 11
-1.6039422 0.98790985 0.3583988 12
-1.5672115 0.96566385 0.2851783 11
-1.5450076 0.95235455 0.21783602 7
-1.5843091 0.97696197 0.15917681 12
-1.5454249 0.95335639 0.092847757 8
-1.5385859 0.94950831 0.030581882 10
-1.4415649 0.89137167 -0.44358552 9
-1.8970609 1.1734792 -0.50575721 22
-1.868992 1.1565672 -0.41940287 39
-1.8717183 1.1587063 -0.34221399 39
-1.8425763 1.1411104 -0.26103815 25
-2.0352962 1.2609537 -0.20612334 5
-2.506844 1.5537034 -0.15205124 2
-2.237644 1.387398 -0.045288995 16
-1.5716603 0.97485048 0.48496959 13
-1.5766543 0.97832924 0.41921654 11
-1.6046541 0.99609119 0.35935199 11
-1.5680265 0.97373384 0.2859596 11
-1.5458896 0.96036071 0.21844451 7
-1.5851198 0.98511553 0.15961173 12
-1.5463281 0.96138149 0.093108565 8
-1.5395074 0.95751357 0.030668272 10
-1.4343455 0.89384383 -0.44229224 30
-1.892953 1.1800939 -0.50575721 13
-1.8691078 1.1656815 -0.42035604 40
-1.8718522 1.1678468 -0.34299526 39
-1.8427917 1.1501629 -0.2616466 27
-2.0477824 1.2786027 -0.20786645 12
-2.475996 1.5465733 -0.15048639 2
-2.2370269 1.3978496 -0.045376252 16
-1.5723433 0.98289073 0.48626286 13
-1.5732298 0.98382682 0.41921654 12
-1.6011672 1.0016865 0.35935199 11
-1.5688044 0.98182136 0.2867409 11
-1.5467342 0.96838462 0.21905299 7
-1.5816715 0.99064255 0.15961173 12
-1.5471941 0.96942449 0.093369372 7
-1.5361557 0.96288151 0.030668272 9
-1.4148562 0.88857025 -0.43711925 15
-1.8888223 1.1866944 -0.50575721 19
-1.8691832 1.1748106 -0.42130923 38
-1.871945 1.1770024 -0.34377658 38
-1.8429668 1.1592309 -0.2622551 25
-2.055954 1.2937013 -0.20917377 13
-2.4917104 1.5685065 -0.15179043 2
-2.2363646 1.4083138 -0.045463517 17
-1.5729892 0.99094766 0.4875561 12
-1.5739076 0.99190992 0.42034045 12
-1.6018131 1.0098872 0.36030519 11
-1.5695449 0.98992604 0.28752223 11
-1.5475416 0.97642606 0.21966147 7
-1.5824161 0.99881625 0.16004664 12
-1.5480226 0.97748518 0.09363018 7
-1.5368422 0.97117597 0.030754661 10
-1.4197513 0.89891744 -0.43970576 17
-1.8885759 1.1962161 -0.50688112 28
-1.8690109 1.1842808 -0.4222624 39
-1.8717896 1.1864995 -0.34455788 40
-1.8428966 1.1686356 -0.26286358 24
-2.0596106 1.3065643 -0.21004534 15
-2.4690812 1.5669266 -0.15074719 2
-2.2396288 1.42186 -0.04563804 18
-1.5734237 0.99929565 0.48884934 12
-1.5743738 1.0002848 0.42146435 12
-1.5981009 1.0157512 0.36030519 12
-1.565906 0.99567205 0.28752223 11
-1.5439523 0.98209155 0.21966147 7
-1.5829468 1.0072837 0.16048154 12
-1.5486417 0.98583388 0.093890987 8
-1.5376596 0.97921997 0.030841051 10
-1.4288198 0.91166157 -0.44358552 10
-1.8884957 1.2054225 -0.50800502 33
-1.8690023 1.1934392 -0.42321563 39
-1.8759604 1.1983432 -0.34612051 38
-1.842988 1.1777339 -0.26347208 24
-2.0550375 1.3137459 -0.21004534 11
-2.3962922 1.5324929 -0.14657426 3
-2.2388628 1.4323632 -0.045725301 18
-1.5739942 1.0073855 0.49014261 13
-1.5749756 1.0084013 0.42258826 12
-1.5986786 1.0239708 0.36125836 11
-1.5665791 1.0037965 0.28830352 11
-1.544693 0.99015313 0.22026995 6
-1.5836141 1.0154917 0.16091645 12
-1.5493939 0.99392968 0.094151795 7
-1.5384396 0.9872815 0.03092744 9
-1.4337538 0.92186779 -0.446172 9
-1.8883739 1.214643 -0.50912893 37
-1.8689528 1.2026119 -0.4241688 39
-1.8759187 1.2075574 -0.34690183 40
-1.8430381 1.1868467 -0.26408052 24
-2.0504389 1.3209113 -0.21004534 11
-2.2146494 1.4272443 -0.13562031 5
-2.2380512 1.4428785 -0.045812566 19
-1.5745269 1.0154914 0.49143586 13
-1.579634 1.0191755 0.42483607 12
-1.5992182 1.0322068 0.36221156 11
-1.5672145 1.0119376 0.28908485 11
-1.5453962 0.99823195 0.22087842 7
-1.5842433 1.0237167 0.16135137 11
-1.5501084 1.0020427 0.094412602 7
-1.5391818 0.99536037 0.03101383 9
-1.4426875 0.93474579 -0.45005178 13
-1.888211 1.2238771 -0.51025283 40
-1.8688617 1.2117988 -0.42512199 39
-1.8758353 1.2167857 -0.34768313 39
-1.8430473 1.1959745 -0.26468903 24
-2.0499935 1.3307728 -0.21048112 11
-2.16359 1.4050517 -0.13275142 9
-2.2413852 1.4561288 -0.045987088 17
-1.5750222 1.0236132 0.4927291 13
-1.5801513 1.027339 0.42595997 12
-1.5997201 1.0404589 0.36316475 11
-1.5678121 1.0200953 0.28986615 11
-1.5419023 1.0036201 0.22087842 7
-1.5848346 1.0319586 0.16178627 11
-1.5507849 1.0101728 0.09467341 7
-1.5356982 1.0007271 0.03101383 9
