# .PCD v0.7 - Point Cloud Data file format
VERSION 0.7
FIELDS x y z intensity
SIZE 4 4 4 4
TYPE F F F F
COUNT 1 1 1 1
WIDTH 1353
HEIGHT 1
VIEWPOINT 0 0 0 1 0 0 0
POINTS 1353
DATA ascii
-2.3688886 0.67792577 -0.21222423 14
-2.4416947 0.69922233 -0.13066494 3
-2.1897762 0.62749457 -0.03909339 13
-1.5317352 0.43921804 0.41642722 7
-1.5447172 0.4432323 0.36189741 7
-1.5747317 0.45214197 0.3107394 8
-1.5556595 0.44695982 0.25001931 9
-1.5535029 0.44663376 0.19349679 9
-1.5781382 0.45401466 0.14004081 16
-1.5530267 0.4470838 0.082415417 11
-1.5307693 0.44096574 0.026867134 10
-1.7164102 0.49606544 -0.46815729 20
-1.44082 0.41668868 -0.33717149 3
-1.5596367 0.4513458 -0.30787984 3
-1.8678032 0.54087991 -0.30158582 51
-1.9529707 0.56591231 -0.24460918 14
-2.3665078 0.68619061 -0.21222423 14
-2.4200575 0.70217574 -0.12962171 3
-2.1395626 0.6211955 -0.038220771 6
-1.5348309 0.44590959 0.4177205 7
-1.5478389 0.44998178 0.36302131 7
-1.573144 0.45763606 0.3107394 8
-1.5540899 0.45238733 0.25001931 8
-1.5519342 0.45205373 0.19349679 9
-1.5765439 0.45952067 0.14004081 15
-1.55625 0.45390025 0.082676224 11
-1.529143 0.44657338 0.026867134 10
-1.7145805 0.50235313 -0.46815729 20
-1.4860356 0.43567365 -0.34841052 9
-1.5626817 0.45844078 -0.308833 2
-1.8705469 0.54911321 -0.30236712 48
-1.9604069 0.57586396 -0.24582614 15
-2.3687561 0.69626439 -0.21266001 13
-2.4366288 0.71667671 -0.13066494 3
-2.1372716 0.62903321 -0.038220771 15
-1.5331863 0.45153204 0.4177205 8
-1.5461793 0.45565188 0.36302131 7
-1.5761638 0.46478716 0.31169257 8
-1.5524213 0.45808035 0.25001931 8
-1.5550267 0.45914418 0.19410528 9
-1.5796258 0.46670726 0.14047572 15
-1.554576 0.45960113 0.082676224 11
-1.5323687 0.45332652 0.026953524 10
-1.7128165 0.50833505 -0.46815729 20
-1.465824 0.43531024 -0.3439149 18
-1.6034166 0.47647604 -0.31741169 2
-1.8733524 0.55704683 -0.30314845 44
-1.9678981 0.58553416 -0.24704309 15
-2.3710852 0.70595002 -0.21309578 14
-2.429327 0.72375214 -0.13040414 3
-2.1925533 0.65362853 -0.039267913 30
-1.5316007 0.45688108 0.4177205 7
-1.5445794 0.46104628 0.36302131 7
-1.5745318 0.47028616 0.31169257 8
-1.5555446 0.46491075 0.25080064 8
-1.5534145 0.46456948 0.19410528 9
-1.5779872 0.4722183 0.14047572 15
-1.5529622 0.46502483 0.082676224 11
-1.530777 0.45867273 0.026953524 10
-1.7110317 0.51431078 -0.46815729 19
-1.4363022 0.43200451 -0.33717149 23
-1.6581442 0.49904478 -0.32884994 2
-1.8761253 0.56500679 -0.30392975 42
-1.9658424 0.59239984 -0.24704309 11
-2.3638375 0.71278429 -0.21266001 14
nan nan nan 0
-2.2141876 0.66850263 -0.039704222 17
-1.5299965 0.4622246 0.4177205 7
-1.5429606 0.46643505 0.36302131 7
-1.5728806 0.47577944 0.31169257 8
-1.5539124 0.47033778 0.25080064 8
-1.5517834 0.46998903 0.19410528 9
-1.5810963 0.47916833 0.14091063 15
-1.5513295 0.4704428 0.082676224 11
-1.5291666 0.46401334 0.026953524 9
-1.7046053 0.51887375 -0.46686405 18
-1.4347854 0.43701547 -0.33717149 28
-1.7502939 0.53344882 -0.34791371 5
-1.8788654 0.5729928 -0.30471104 47
-1.9590157 0.59780979 -0.2464346 12
-2.3660986 0.72248596 -0.21309578 11
-1.7127 0.52329808 -0.091543712 5
-2.2214019 0.6791507 -0.039878745 13
-1.5329924 0.46897539 0.41901374 7
-1.5459818 0.47324422 0.36414522 7
-1.5712103 0.48126695 0.31169257 8
-1.552261 0.47575906 0.25080064 8
-1.5548782 0.47685805 0.19471376 9
-1.5794141 0.4846845 0.14091063 15
-1.5496778 0.47585511 0.082676224 11
-1.5323163 0.47081664 0.027039913 10
-1.7027838 0.5248208 -0.46686405 17
-1.4239399 0.43914953 -0.33492368 36
-1.7953217 0.55402851 -0.35744563 15
-1.8768538 0.57954776 -0.30471104 23
-1.956917 0.60464436 -0.2464346 12
nan nan nan 0
-1.749024 0.54107887 -0.09363018 4
-2.2237935 0.68837911 -0.03996601 13
-1.5313458 0.47432366 0.41901374 7
-1.5443206 0.47863784 0.36414522 6
-1.5695208 0.48674858 0.31169257 8
-1.5553076 0.48263824 0.25158197 8
-1.5532042 0.4822827 0.19471376 9
-1.5824692 0.49167264 0.14134555 15
-1.5527755 0.48274392 0.082937032 11
-1.5306636 0.47616255 0.027039913 9
-1.6917202 0.52788407 -0.46427754 16
-1.4223983 0.44411731 -0.33492368 47
-1.7090471 0.5339455 -0.34028822 2
-1.870106 0.58462214 -0.30392975 13
-1.9547945 0.61147153 -0.2464346 11
-2.375258 0.74345028 -0.21440314 28
-1.7995393 0.56359649 -0.096499063 4
-2.2213771 0.69613743 -0.03996601 14
-1.5342895 0.48111129 0.42030698 7
-1.5426403 0.48402557 0.36414522 7
-1.5678121 0.49222422 0.31169257 8
-1.5536135 0.48806435 0.25158197 8
-1.5515113 0.48770148 0.19471376 9
-1.5807434 0.49719349 0.14134555 15
-1.5510809 0.48816121 0.082937032 11
-1.5289081 0.4817695 0.027039913 9
-1.6851687 0.53262544 -0.46298429 13
-1.4161156 0.44785857 -0.33379978 55
-1.6743217 0.52983987 -0.3336159 2
-1.8585342 0.5884909 -0.30236712 29
-1.9525403 0.6186322 -0.2464346 12
-2.367769 0.75064582 -0.21396735 20
nan nan nan 0
-2.2188108 0.70427448 -0.03996601 14
-1.5325159 0.48673153 0.42030698 7
-1.5408559 0.48967639 0.36414522 6
-1.5706749 0.49945459 0.31264576 8
-1.5518142 0.49375531 0.25158197 9
-1.5544424 0.49489039 0.19532226 9
-1.5836565 0.5044958 0.14178045 15
-1.5492814 0.49384296 0.082937032 10
-1.5319798 0.48862252 0.027126303 9
-1.674099 0.5355612 -0.46039781 9
-1.4145437 0.45279899 -0.33379978 61
-1.6584388 0.53118962 -0.33075634 3
-1.8564687 0.59497476 -0.30236712 33
-1.9503689 0.62544405 -0.2464346 12
-2.3651342 0.75890625 -0.21396735 13
-2.4230101 0.77794343 -0.13092576 3
-2.2210987 0.71354431 -0.040053267 14
-1.5354056 0.49355611 0.42160022 7
-1.5391372 0.49505201 0.36414522 6
-1.5689219 0.50493419 0.31264576 8
-1.5500813 0.49916914 0.25158197 8
-1.5527053 0.5003134 0.19532226 9
-1.5818859 0.51002073 0.14178045 15
-1.5523001 0.50078094 0.08319784 11
-1.5302649 0.49396718 0.027126303 10
-1.6630293 0.53842628 -0.4578113 5
-1.4083197 0.45623246 -0.33267587 59
-1.7359496 0.56270468 -0.34696054 22
-1.8590782 0.60297507 -0.30314845 40
-1.9528943 0.6337803 -0.24704309 11
-2.3624709 0.76715744 -0.21396735 14
-2.4155309 0.78485358 -0.13066494 3
-2.21384 0.71974742 -0.03996601 14
-1.5336734 0.49891269 0.42160022 7
-1.5373998 0.50042158 0.36414522 7
-1.5671499 0.51040769 0.31264576 8
-1.5530248 0.50610715 0.25236326 8
-1.5509495 0.50573027 0.19532226 9
-1.580096 0.51553941 0.14178045 15
-1.5505425 0.50619638 0.08319784 10
-1.5285312 0.49930575 0.027126303 9
-1.6886785 0.55325037 -0.46557081 7
-1.4067185 0.46114564 -0.33267587 56
-1.7619578 0.57793951 -0.35267967 25
-1.8616545 0.61100084 -0.30392975 45
-1.9506701 0.64059323 -0.24704309 11
-2.3692427 0.77850914 -0.21483891 14
-2.4364936 0.80107838 -0.131969 3
-2.2208118 0.73059535 -0.040140532 12
-1.5319226 0.50426316 0.42160022 7
-1.540271 0.50730914 0.36526912 7
-1.5653586 0.51587498 0.31264576 7
-1.5512488 0.51152515 0.25236326 8
-1.5538876 0.51269603 0.19593073 9
-1.5782866 0.52105182 0.14178045 14
-1.5487661 0.5116058 0.08319784 10
-1.5315257 0.50620723 0.027212691 10
-1.7096596 0.56674027 -0.47203705 5
-1.4051003 0.46605319 -0.33267587 49
-1.7459543 0.57944822 -0.34982011 20
-1.8595102 0.61749554 -0.30392975 45
-1.9484222 0.64739847 -0.24704309 11
-2.3712375 0.78834611 -0.21527469 14
-2.414731 0.8032741 -0.13092576 3
-2.180301 0.72571224 -0.039442439 3
-1.530153 0.50960749 0.42160022 7
-1.5523573 0.51730347 0.36864081 6
-1.5635484 0.5213359 0.31264576 7
-1.5494537 0.51693684 0.25236326 8
-1.5520884 0.51811695 0.19593073 9
-1.5811827 0.52813596 0.14221536 15
-1.5517067 0.51859152 0.083458655 11
-1.5297495 0.51155013 0.027212691 9
-1.7305667 0.5803833 -0.47850332 7
-1.4080838 0.472505 -0.33379978 48
-1.7392679 0.58397692 -0.34886691 18
-1.8620249 0.62555546 -0.30471104 48
-1.9414462 0.65261447 -0.2464346 12
-2.3495867 0.79026681 -0.21353158 6
-2.4355741 0.8196612 -0.1322298 3
nan nan nan 0
-1.5283648 0.51494563 0.42160022 7
-1.5597756 0.52583188 0.37088862 14
-1.56637 0.52835941 0.31359896 7
-1.5476398 0.52234232 0.25236326 8
-1.5502706 0.52353156 0.19593073 8
-1.5793297 0.53365207 0.14221536 14
-1.5498869 0.52400488 0.083458655 10
-1.5326902 0.51848882 0.02729908 9
-1.7513995 0.59417915 -0.48496959 11
-1.4064258 0.47741726 -0.33379978 45
-1.7186288 0.5837304 -0.34505415 16
-1.8645059 0.63364035 -0.30549237 41
-1.9391563 0.65938741 -0.2464346 12
nan nan nan 0
-2.4421518 0.83137619 -0.13275142 3
-1.6499023 0.56199396 -0.02975635 8
-1.5311297 0.52183551 0.42289349 7
-1.5717646 0.53599083 0.37426034 14
-1.5645161 0.53382379 0.31359896 7
-1.550481 0.52933705 0.25314459 8
-1.5531299 0.5305441 0.19653921 9
-1.5821705 0.54077268 0.14265026 14
-1.552773 0.53102756 0.083719462 11
-1.5308709 0.52383578 0.02729908 9
-1.7310412 0.5940184 -0.47979656 15
-1.4093589 0.48390588 -0.33492368 43
-1.7072968 0.58653653 -0.34314778 5
-1.8622826 0.64014488 -0.30549237 45
-1.9368429 0.6661523 -0.2464346 12
-2.4005311 0.82610047 -0.21876092 19
-2.4439561 0.84152162 -0.13301224 3
-1.6290243 0.56123608 -0.029407302 17
-1.5292988 0.52717698 0.42289349 7
-1.5744897 0.54306263 0.37538424 13
-1.5672829 0.540883 0.31455213 7
-1.5486237 0.53474605 0.25314459 8
-1.5512686 0.53596234 0.19653921 9
-1.5802732 0.54629219 0.14265026 15
-1.55091 0.53644449 0.083719462 10
-1.5337574 0.53081137 0.02738547 9
-1.7107058 0.59372276 -0.47462356 12
-1.4122636 0.4904207 -0.33604759 43
-1.6681476 0.57960498 -0.33552229 7
-1.8647015 0.64826322 -0.30627367 47
-1.939193 0.67453963 -0.24704309 13
-2.3505909 0.81810236 -0.21440314 19
-2.4410038 0.85004747 -0.13301224 3
-1.5892884 0.55375981 -0.028709207 13
-1.5274493 0.53251201 0.42289349 7
-1.5725845 0.54855525 0.37538424 14
-1.5653853 0.54635048 0.31455213 7
-1.5514098 0.5417766 0.25392589 8
-1.5493882 0.54137403 0.19653921 9
-1.5783566 0.55180508 0.14265026 15
-1.5490279 0.54185498 0.083719462 10
-1.5318952 0.53616196 0.02738547 9
-1.6903936 0.59329259 -0.46945056 13
-1.410543 0.4953475 -0.33604759 39
-1.6336989 0.57403457 -0.32884994 4
-1.8624274 0.65476829 -0.30627367 43
-1.9368268 0.68130457 -0.24704309 15
-2.3148317 0.81472683 -0.21135268 12
-2.4380217 0.85856295 -0.13301224 3
-1.5732003 0.55431998 -0.028447421 7
-1.5255811 0.5378406 0.42289349 7
-1.5706601 0.55404127 0.37538424 14
-1.5680972 0.55344498 0.31550533 7
-1.5495093 0.5471887 0.25392589 8
-1.5521685 0.54843247 0.1971477 9
-1.5811172 0.55897146 0.14308518 14
-1.5518345 0.54892385 0.08398027 10
-1.5347271 0.54317391 0.027471859 9
-1.6746572 0.59434336 -0.46557081 13
-1.4133965 0.50189847 -0.33717149 36
-1.7658119 0.6273886 -0.35649243 34
-1.8647838 0.66291958 -0.307055 44
-1.9344368 0.68806118 -0.24704309 16
-2.3260515 0.82781225 -0.21266001 11
-2.4350097 0.86706805 -0.13301224 3
-1.5712559 0.55980808 -0.028447421 6
-1.5282439 0.54478431 0.42418674 7
-1.5733055 0.56115729 0.37650815 14
-1.5661557 0.55891532 0.31550533 7
-1.5475898 0.55259418 0.25392589 8
-1.5502446 0.55384719 0.1971477 8
-1.5791564 0.56448716 0.14308518 15
-1.549909 0.55433744 0.08398027 10
-1.5375286 0.5502122 0.027558248 12
-1.6634805 0.59692276 -0.46298429 14
-1.4116359 0.50682908 -0.33717149 33
-1.8513776 0.66507721 -0.374603 32
-1.8624583 0.66942495 -0.307055 42
-1.9273531 0.69312996 -0.2464346 18
-2.3325214 0.8392995 -0.21353158 10
-2.4319687 0.87556255 -0.13301224 3
nan nan nan 0
-1.5263329 0.55011559 0.42418674 7
-1.5713371 0.56664574 0.37650815 13
-1.5641953 0.56437874 0.31550533 7
-1.5502967 0.55966991 0.25470719 7
-1.5483018 0.55925518 0.1971477 8
-1.5771763 0.569996 0.14308518 14
-1.5526601 0.5614422 0.084241085 10
-1.5402997 0.55727667 0.027644638 12
-1.6568463 0.60107857 -0.46169105 13
-1.4098581 0.5117535 -0.33717149 30
-1.8490446 0.67153567 -0.374603 36
-1.8647517 0.67760867 -0.30783629 40
-1.9155934 0.69646192 -0.24521764 10
-2.3342581 0.84913915 -0.21396735 10
-2.4288974 0.88404638 -0.13301224 3
-2.2014649 0.80170292 -0.040227797 33
-1.5289413 0.55709362 0.42547998 7
-1.5739269 0.57379603 0.37763205 14
-1.5668267 0.57151741 0.31645852 7
-1.5483338 0.56507802 0.25470719 8
-1.551002 0.56635857 0.19775617 9
-1.5798556 0.57720721 0.14352009 15
-1.5506909 0.56685859 0.084241085 10
-1.5383451 0.56264991 0.027644638 12
-1.6502035 0.6051954 -0.46039781 14
-1.4126371 0.51835006 -0.3382954 24
-1.860512 0.68306082 -0.37746257 40
-1.8623751 0.68411368 -0.30783629 44
-1.9038343 0.6997202 -0.24400067 8
-2.3359549 0.85900128 -0.21440314 10
-2.4211102 0.89079517 -0.13275142 3
-2.2221105 0.81801778 -0.040664103 22
-1.5315197 0.56409663 0.42677325 6
-1.5719146 0.57928658 0.37763205 13
-1.5648222 0.57698315 0.31645852 7
-1.5509851 0.57218856 0.25548851 8
-1.5490156 0.57176912 0.19775617 9
-1.5778311 0.58271843 0.14352009 14
-1.5533864 0.57399869 0.084501892 10
-1.5410608 0.56974995 0.027731029 12
-1.6479743 0.61123961 -0.46039781 13
-1.40616 0.52182907 -0.33717149 18
-1.8487931 0.68645835 -0.37555617 34
-1.8691142 0.69437474 -0.30939892 41
-1.8919535 0.70323533 -0.24278374 5
-2.3327909 0.86755717 -0.21440314 10
-2.4271884 0.90314561 -0.13327304 3
-2.2190974 0.82615674 -0.040664103 15
-1.5339679 0.571392 0.42806649 7
-1.5743459 0.58674538 0.37875596 13
-1.5626971 0.58271462 0.31645852 7
-1.5488775 0.57786942 0.25548851 8
-1.5515589 0.57917833 0.19836466 8
-1.580351 0.5902403 0.14395499 14
-1.5512722 0.57968831 0.084501892 10
-1.5389624 0.57539445 0.027731029 12
-1.6458305 0.61698848 -0.46039781 14
-1.4408237 0.54042226 -0.34616271 9
-1.8371952 0.68945855 -0.37364981 24
-1.866679 0.70089495 -0.30939892 42
-1.8848412 0.70808983 -0.24217525 14
-2.3204234 0.87218988 -0.21353158 9
-2.4333687 0.91512793 -0.13379467 3
-2.2255576 0.83741885 -0.040838629 16
-1.5319639 0.57674301 0.42806649 6
-1.5768476 0.59395474 0.37987986 13
-1.5606534 0.58816594 0.31645852 7
-1.5514719 0.58501494 0.25626981 7
-1.5495279 0.58459079 0.19836466 9
-1.578281 0.59575313 0.14395499 14
-1.5539101 0.58686382 0.0847627 10
-1.541621 0.58253002 0.027817419 12
-1.6391503 0.62101859 -0.45910454 14
-1.4708186 0.55753684 -0.35403004 4
-1.8255986 0.69238627 -0.37174344 17
-1.864221 0.70740658 -0.30939892 39
-1.8777184 0.71290338 -0.24156678 19
-2.3220208 0.88205296 -0.21396735 9
-2.4208243 0.92006844 -0.13327304 3
-2.2319667 0.84873629 -0.041013151 15
-1.5344557 0.58380455 0.42935973 6
-1.5747647 0.59945536 0.37987986 13
-1.5631777 0.595357 0.31741169 7
-1.5494205 0.59042698 0.25626981 7
-1.5474778 0.58999604 0.19836466 8
-1.5808457 0.60303408 0.1443899 14
-1.5518523 0.59228444 0.0847627 11
-1.5395781 0.58790767 0.027817419 12
-1.6369727 0.62673646 -0.45910454 14
-1.5280091 0.58532417 -0.36864081 5
-1.8231705 0.69875455 -0.37174344 6
nan nan nan 0
-1.870585 0.71767563 -0.24095827 9
-2.3142776 0.88836807 -0.21353158 4
nan nan nan 0
-2.2196572 0.85293567 -0.040838629 6
-1.5324084 0.58915728 0.42935973 6
-1.5772098 0.60669786 0.38100377 13
-1.5702515 0.60433584 0.31931809 6
-1.5519586 0.59760654 0.25705114 7
-1.5454088 0.59539419 0.19836466 8
-1.5787312 0.60854858 0.1443899 14
-1.5544342 0.59949458 0.085023507 10
-1.5421805 0.59507793 0.027903808 12
-1.6302705 0.63070405 -0.4578113 15
-1.5168695 0.58713692 -0.36639303 4
-1.8252974 0.70688689 -0.37269661 3
nan nan nan 0
-1.83105 0.70984989 -0.23609044 3
nan nan nan 0
nan nan nan 0
nan nan nan 0
-1.5303426 0.59450275 0.42935973 6
-1.5796235 0.61396456 0.38212767 13
-1.581856 0.61515021 0.32217765 13
-1.5498631 0.60302019 0.25705114 7
-1.5479459 0.60258538 0.19897313 8
-1.5812386 0.61586344 0.14482482 14
-1.5523319 0.60491681 0.085023507 10
-1.5400939 0.60045755 0.027903808 12
-1.628059 0.63639092 -0.4578113 15
-1.5238855 0.59597731 -0.36864081 4
-1.7542562 0.68642616 -0.3583988 3
nan nan nan 0
-1.874771 0.73433727 -0.24217525 5
-1.7561494 0.68822736 -0.1616739 2
nan nan nan 0
nan nan nan 0
-1.528258 0.59984106 0.42935973 6
-1.5774708 0.61947483 0.38212767 12
-1.5934042 0.62605292 0.32503721 13
-1.5523449 0.61023337 0.25783244 8
-1.545833 0.60798502 0.19897313 8
-1.5790794 0.62137926 0.14482482 14
-1.554857 0.61216098 0.085284315 10
-1.5426401 0.60766202 0.027990198 12
-1.6213354 0.64029592 -0.45651805 17
-1.5127336 0.59771228 -0.36639303 3
-1.6742519 0.66186935 -0.34219459 2
-1.6658736 0.65889347 -0.27736521 2
-1.7614448 0.69704974 -0.22757173 2
-1.6796371 0.66501534 -0.15470144 3
nan nan nan 0
nan nan nan 0
-1.5261549 0.60517198 0.42935973 6
-1.5798273 0.62677413 0.38325158 12
-1.6003332 0.63523281 0.32694358 13
-1.5502053 0.61564839 0.25783244 7
-1.5483136 0.61520994 0.19958161 8
-1.5769007 0.6268875 0.14482482 14
-1.5527107 0.61758476 0.085284315 10
-1.5405095 0.61304313 0.027990198 12
-1.6146044 0.64416176 -0.45522478 14
-1.5061131 0.60118294 -0.36526912 3
-1.6810476 0.67135024 -0.34410098 8
-1.6819077 0.67203414 -0.28049043 8
-1.6668359 0.66634935 -0.21540211 5
-1.6819303 0.67272413 -0.15513723 11
-1.7136664 0.68576461 -0.094412602 11
-1.6923729 0.6775862 -0.031152545 15
-1.5285167 0.61229163 0.43065301 6
-1.57763 0.63228494 0.38325158 12
-1.6026618 0.6426419 0.32789677 13
-1.5526304 0.62289464 0.25861374 7
-1.5461566 0.62061077 0.19958161 8
-1.5747029 0.63238806 0.14482482 14
-1.5505455 0.62300098 0.085284315 10
-1.5428904 0.62055081 0.028076587 12
-1.6077532 0.64826918 -0.45393154 14
-1.5038995 0.60669905 -0.36526912 3
-1.6831273 0.67934424 -0.34505415 11
-1.6885918 0.68189263 -0.28205305 15
-1.6827883 0.67989057 -0.21783602 13
-1.6748354 0.67701751 -0.15470144 21
-1.7111413 0.69204092 -0.094412602 10
-1.6435359 0.6650328 -0.030279925 6
-1.5262622 0.61788976 0.43065301 6
-1.5798175 0.63989198 0.38437548 12
-1.6002957 0.64851165 0.32789677 12
-1.550337 0.62858111 0.25861374 7
-1.5438715 0.62627357 0.19958161 8
-1.5769898 0.64002854 0.14525972 14
-1.5482517 0.62867981 0.085284315 10
-1.5407149 0.62593269 0.028076587 11
-1.5965343 0.65023369 -0.45134503 11
-1.5017725 0.61194497 -0.36526912 3
-1.7034712 0.69448018 -0.34982011 7
-1.6541917 0.67472637 -0.27658388 8
-1.6620251 0.67825985 -0.21540211 11
-1.6401821 0.66967988 -0.151651 9
-1.7225825 0.7036745 -0.095195025 9
-1.6319489 0.66698301 -0.030105399 4
-1.5285665 0.62504166 0.43194625 6
-1.5775743 0.64540267 0.38437548 12
-1.6025647 0.65595305 0.32884994 13
-1.5481334 0.63398904 0.25861374 7
-1.5462683 0.63354039 0.2001901 8
-1.5747461 0.64552939 0.14525972 14
-1.5506675 0.63597512 0.085545123 10
-1.5431454 0.6332047 0.028162977 12
-1.5808547 0.65029049 -0.4474653 7
-1.4996274 0.61718339 -0.36526912 3
-1.6964979 0.69855332 -0.34886691 4
-1.6335613 0.67297184 -0.27345866 5
-1.655059 0.6821661 -0.21479362 7
-1.6332296 0.67350221 -0.15121521 6
-1.7016526 0.70206559 -0.094151795 5
-1.652716 0.68221295 -0.030541711 4
-1.5263754 0.6303736 0.43194625 6
-1.5798147 0.65276599 0.38549939 12
-1.6002653 0.66154307 0.32884994 13
-1.5459108 0.63938916 0.25861374 7
-1.5440475 0.63893402 0.2001901 8
-1.5770854 0.65292764 0.14569463 14
-1.5484381 0.64138407 0.085545123 10
-1.5409257 0.63858747 0.028162977 11
-1.5651942 0.65024585 -0.44358552 5
-1.4974638 0.62241429 -0.36526912 3
-1.6895173 0.70258629 -0.34791371 3
-1.6312022 0.67866993 -0.27345866 3
-1.6435043 0.68412477 -0.21357667 4
-1.6216725 0.6753692 -0.15034366 3
nan nan nan 0
-2.2271173 0.92842788 -0.041449465 24
-1.5286235 0.63755703 0.43323949 6
-1.5775265 0.65827668 0.38549939 12
-1.6024758 0.66901606 0.32980317 12
-1.5482266 0.64668494 0.25939506 7
-1.5463868 0.64623344 0.20079857 8
-1.5747967 0.65842879 0.14569463 14
-1.5507963 0.6487121 0.08580593 10
-1.5432991 0.6458925 0.028249366 11
-1.5985452 0.6706537 -0.45393154 12
-1.4952821 0.62763762 -0.36526912 3
-1.7820889 0.74838924 -0.36793068 2
-1.7517551 0.73601031 -0.29455402 3
-1.6685565 0.70139652 -0.21722755 3
-1.6744024 0.70419788 -0.155573 2
nan nan nan 0
-2.2330782 0.94007581 -0.041623987 30
-1.5263886 0.64288896 0.43323949 6
-1.5797087 0.66567117 0.38662329 12
-1.6001307 0.67460561 0.32980317 13
-1.5459599 0.6520853 0.25939506 7
-1.5441215 0.65162742 0.20079857 8
-1.5770775 0.66585928 0.14612953 14
-1.5485224 0.65412146 0.08580593 10
-1.5410351 0.65127569 0.028249366 11
-1.6139834 0.68376589 -0.45910454 15
-1.4930822 0.63285333 -0.36526912 3
-1.8653225 0.79101413 -0.38604125 35
-1.8673794 0.7922709 -0.31486809 31
-1.7757375 0.75375581 -0.23183107 2
nan nan nan 0
-2.4157131 1.0264047 -0.1350987 12
-2.2389846 0.9517765 -0.04179851 22
-1.5241351 0.64821315 0.43323949 6
-1.5773755 0.67118132 0.38662329 12
-1.6022823 0.68210959 0.33075634 12
-1.5482178 0.65941292 0.26017636 7
-1.5418376 0.65701348 0.20079857 7
-1.5793257 0.67331368 0.14656444 14
-1.5508225 0.66148186 0.086066738 10
-1.5433505 0.65861315 0.028335756 11
-1.6160272 0.69129515 -0.46039781 13
-1.490864 0.63806129 -0.36526912 3
-1.8670622 0.79945254 -0.38699445 20
-1.8691422 0.80072927 -0.31564942 28
-1.9145029 0.82055694 -0.25069398 22
-2.1913199 0.93965369 -0.20525178 15
-2.4167044 1.0367996 -0.13535951 13
-2.2218668 0.95367074 -0.041536722 14
-1.5263011 0.6554352 0.43453273 6
-1.5794994 0.67860645 0.3877472 12
-1.5998913 0.68769836 0.33075634 13
-1.5504434 0.66676426 0.26095769 7
-1.5440936 0.66435283 0.20140706 8
-1.5769657 0.67882252 0.14656444 13
-1.548504 0.66689122 0.086066738 9
-1.541042 0.6639964 0.028335756 11
-1.6091706 0.69501686 -0.45910454 14
-1.4841553 0.64132893 -0.36414522 3
-1.846239 0.79817396 -0.38318169 5
-1.8527374 0.80136716 -0.31330547 17
-1.8797442 0.81343788 -0.2464346 19
-2.1514587 0.93146521 -0.20176555 11
-2.4084885 1.0432442 -0.1350987 11
-2.2276983 0.96539623 -0.041711248 15
-1.5240041 0.66075897 0.43453273 6
-1.5771209 0.68411583 0.3877472 12
-1.5974811 0.69327891 0.33075634 12
-1.5526366 0.67413914 0.26173899 7
-1.541765 0.66973865 0.20140706 7
-1.5791548 0.68630838 0.14699936 13
-1.5507458 0.6742835 0.086327545 9
-1.5387148 0.6693716 0.028335756 11
-1.6111618 0.70256019 -0.46039781 14
-1.4774419 0.64455748 -0.36302131 3
-1.8569369 0.81050396 -0.38604125 8
-1.8589805 0.8117823 -0.31486809 32
-1.8677975 0.81602061 -0.24521764 16
-2.1481943 0.93896955 -0.20176555 12
-2.4139822 1.0556464 -0.13562031 8
-2.2243147 0.97316647 -0.041711248 15
-1.5216883 0.66607475 0.43453273 6
-1.5791863 0.6915713 0.38887113 12
-1.5995471 0.70082062 0.33170953 12
-1.5502739 0.67955476 0.26173899 7
-1.5394179 0.67511642 0.20140706 8
-1.5813109 0.69381779 0.14743426 14
-1.5529547 0.6816994 0.086588353 10
-1.5409461 0.67674887 0.028422145 11
-1.6086996 0.70817995 -0.46039781 14
-1.4707243 0.64774704 -0.36189741 2
-1.8585881 0.81896019 -0.38699445 36
-1.8606546 0.82025862 -0.31564942 36
-1.8785603 0.82854384 -0.24704309 17
-2.1130044 0.93238646 -0.19871509 11
-2.396579 1.0580168 -0.1348379 3
-2.2071853 0.97486556 -0.041449465 4
-1.5237718 0.67333454 0.435826 6
-1.5767627 0.69707954 0.38887113 12
-1.5970911 0.70639986 0.33170953 12
-1.5478923 0.68496209 0.26173899 7
-1.54159 0.682495 0.20201553 7
-1.5788794 0.69933331 0.14743426 13
-1.5505656 0.68711615 0.086588353 10
-1.5385745 0.6821236 0.028422145 11
-1.6062177 0.71379101 -0.46039781 15
-1.4595504 0.64891827 -0.35964957 2
-1.8646874 0.82943249 -0.38890082 38
-1.8668039 0.83076429 -0.31721202 39
-1.8756566 0.83509612 -0.24704309 14
-2.0141869 0.8971951 -0.18956374 6
-2.4293575 1.0826359 -0.13692436 3
nan nan nan 0
-1.525823 0.68061697 0.43711925 6
-1.5743198 0.7025792 0.38887113 12
-1.5990974 0.7139715 0.33266273 12
-1.5454919 0.69036108 0.26173899 7
-1.5437293 0.68989682 0.20262401 7
-1.5809759 0.70687354 0.14786917 13
-1.5527157 0.69456333 0.08684916 9
-1.5407472 0.68953228 0.028508535 11
-1.6037164 0.71939337 -0.46039781 15
-1.4572765 0.6540091 -0.35964957 3
-1.8617808 0.83593637 -0.38890082 39
-1.8683976 0.83929926 -0.31799331 40
-1.8727303 0.84163839 -0.24704309 15
-1.9928714 0.89604998 -0.18782063 5
-2.4392245 1.0972546 -0.13770677 2
-1.648707 0.74199623 -0.030890757 3
-1.5278419 0.68792188 0.43841249 6
-1.5763 0.71007138 0.38999504 12
-1.5965955 0.71954906 0.33266273 12
-1.5475749 0.69778156 0.26252028 7
-1.5458355 0.69732195 0.2032325 7
-1.5784987 0.71238786 0.14786917 13
-1.5548327 0.70203388 0.087109968 9
-1.5382096 0.69517475 0.028508535 11
-1.6010689 0.72526652 -0.46039781 15
-1.4459944 0.65532362 -0.35740176 3
-1.8631747 0.8447814 -0.38985398 39
-1.8698064 0.84818178 -0.31877464 39
-1.869633 0.84849662 -0.24704309 15
-1.9850383 0.90128893 -0.18738484 5
-2.4579172 1.1165128 -0.13901082 2
-1.6505276 0.7501024 -0.03097802 3
-1.529707 0.69551617 0.43970576 6
-1.5736868 0.71584404 0.38999504 12
-1.598415 0.72742915 0.3336159 12
-1.5450069 0.70344907 0.26252028 7
-1.5432692 0.70298308 0.2032325 7
-1.5804096 0.72023416 0.14830408 13
-1.5522491 0.70772785 0.087109968 9
-1.5403219 0.70261455 0.028594924 11
-1.5941349 0.72884262 -0.45910454 14
-1.4436982 0.66036713 -0.35740176 4
-1.8602145 0.85127997 -0.38985398 41
-1.8668343 0.85470349 -0.31877464 39
-1.8666596 0.85501766 -0.24704309 16
-2.0045209 0.91858786 -0.18956374 7
-2.4585438 1.1271666 -0.13927162 2
-1.6615313 0.76211202 -0.031239806 4
-1.5316597 0.70286596 0.440999 6
-1.5756061 0.7233656 0.39111891 12
-1.6003264 0.73505294 0.3345691 12
-1.5470295 0.71089989 0.26330161 7
-1.545315 0.71043873 0.20384097 7
-1.577886 0.72574639 0.14830408 13
-1.5543051 0.71522921 0.087370776 9
-1.53786 0.70798707 0.028594924 10
-1.5915811 0.73440272 -0.45910454 15
-1.450231 0.66948658 -0.35964957 4
-1.8616877 0.85982621 -0.39080721 41
-1.8683224 0.86328608 -0.31955594 43
-1.8681684 0.86361068 -0.24765156 16
-2.0239067 0.93603373 -0.19174264 12
-2.4636574 1.1399354 -0.13979325 2
-1.6860813 0.78050786 -0.031763379 3
-1.5423448 0.71429735 0.44487876 6
-1.5730715 0.72886103 0.39111891 12
-1.6022038 0.74269885 0.33552229 12
-1.5490187 0.71837354 0.26408291 7
-1.5428258 0.71582854 0.20384097 7
-1.579861 0.73334712 0.148739 13
-1.5517991 0.72065032 0.087370776 9
-1.5399132 0.71545738 0.028681314 11
-1.589008 0.73995394 -0.45910454 14
-1.4523017 0.67660236 -0.3607735 4
-1.8586749 0.86631948 -0.39080721 42
-1.8697737 0.87188977 -0.32033727 42
-1.8651425 0.87012661 -0.24765156 16
-2.0116003 0.93887949 -0.19087109 17
-2.4687119 1.1527534 -0.14031486 2
-2.2359302 1.0445323 -0.042409342 10
-1.5485932 0.72376686 0.4474653 13
-1.5749311 0.73641133 0.39224282 11
-1.5996016 0.74828708 0.33552229 11
-1.5465018 0.72377616 0.26408291 7
-1.5448122 0.72331417 0.20444946 7
-1.5772915 0.73885739 0.148739 13
-1.5537953 0.7281816 0.087631583 9
-1.5374063 0.72082829 0.028681314 10
-1.5864153 0.74549609 -0.45910454 15
-1.45434 0.6837405 -0.36189741 4
-1.860081 0.87489122 -0.39176041 45
-1.8667189 0.87841117 -0.32033727 47
-1.8620938 0.87663186 -0.24765156 15
-1.9947917 0.93952835 -0.18956374 16
-2.473707 1.1656204 -0.14083648 2
-2.2141826 1.0438039 -0.042060297 33
-1.5547941 0.73328853 0.45005178 13
-1.572351 0.74190438 0.39224282 11
-1.6014184 0.75596142 0.33647546 11
-1.5484315 0.73127902 0.26486424 6
-1.5422781 0.72870219 0.20444946 7
-1.5792061 0.74648732 0.1491739 13
-1.551244 0.73360097 0.087631583 9
-1.5393997 0.72832847 0.028767703 10
-1.5838034 0.75102913 -0.45910454 15
-1.4475428 0.68672472 -0.3607735 4
-1.8614501 0.88348335 -0.39271358 44
-1.8681024 0.88704026 -0.32111859 39
-1.8590225 0.88312644 -0.24765156 15
-1.973505 0.93793344 -0.18782063 11
-2.4786417 1.1785365 -0.14135811 2
-2.233098 1.062264 -0.042496607 19
-1.5653086 0.74493784 0.45393154 13
-1.5741507 0.74948281 0.39336672 11
-1.5987699 0.76154679 0.33647546 11
-1.5458696 0.73667967 0.26486424 6
-1.5442047 0.73621702 0.20505793 7
-1.5810865 0.7541396 0.14960881 13
-1.5531801 0.7411617 0.087892391 8
-1.541231 0.73612034 0.028854093 10
-1.5810401 0.75682902 -0.45910454 15
-1.4406217 0.6899212 -0.35964957 4
-1.862626 0.89242083 -0.39366677 46
-1.8648388 0.89388126 -0.32111859 41
-1.8557731 0.88993418 -0.24765156 15
-1.9655632 0.94300586 -0.18738484 8
-2.478807 1.1897738 -0.14161891 2
-2.2246828 1.0682775 -0.042409342 14
-1.566921 0.75276142 0.45522478 13
-1.571393 0.75524735 0.39336672 12
-1.6003915 0.76952845 0.33742866 11
-1.5476094 0.74448144 0.26564553 6
-1.5414959 0.74187183 0.20505793 7
-1.5827998 0.76209033 0.15004371 13
-1.5504533 0.74684942 0.087892391 8
-1.5386522 0.74149573 0.028854093 10
-1.5783886 0.76234329 -0.45910454 15
-1.4294312 0.69070631 -0.35740176 4
-1.8594993 0.89891714 -0.39366677 49
-1.8661531 0.9025355 -0.32189989 41
-1.8571229 0.89856815 -0.24826005 14
-1.9712261 0.95420158 -0.1882564 11
-2.4836266 1.2027719 -0.14214052 2
-2.2299385 1.0803962 -0.042583872 15
-1.5686303 0.76033306 0.45651805 13
-1.5731308 0.76285374 0.39449063 12
-1.6021116 0.77725261 0.33838186 12
-1.5494441 0.7520355 0.26642683 7
-1.5433613 0.74941593 0.20566641 7
-1.5846105 0.76978731 0.15047863 12
-1.5523278 0.75443959 0.088153206 9
-1.5405505 0.74904817 0.028940482 10
-1.5757179 0.76784825 -0.45910454 15
-1.4226321 0.69355679 -0.35627785 4
-1.8607619 0.90755421 -0.39461994 45
-1.8674296 0.91120982 -0.32268122 41
-1.8539751 0.90504527 -0.24826005 15
-1.994738 0.97419196 -0.19087109 7
-2.4838996 1.2136261 -0.14240134 2
-2.2261536 1.0881735 -0.042583872 16
-1.5703055 0.7679258 0.4578113 13
-1.5704585 0.76834029 0.39449063 11
-1.5993887 0.78284025 0.33838186 11
-1.5468097 0.75743949 0.26642683 6
-1.5451927 0.75698209 0.2062749 7
-1.5819137 0.77531391 0.15047863 13
-1.5496849 0.75985366 0.088153206 9
-1.5424148 0.75662285 0.029026872 10
-1.5686938 0.77121294 -0.4578113 14
-1.4158307 0.69636816 -0.35515395 4
-1.8619865 0.91621101 -0.39557317 41
-1.8686681 0.91990387 -0.32346252 40
-1.8508044 0.91151136 -0.24826005 16
-2.0091972 0.98995471 -0.1926142 5
-2.4841268 1.2244966 -0.14266214 2
-2.2268252 1.0981487 -0.042671129 16
-1.5676153 0.77340251 0.4578113 13
-1.5721358 0.77597392 0.39561453 11
-1.6010472 0.7905916 0.33933502 11
-1.548584 0.76502162 0.26720816 6
-1.5469899 0.76457006 0.20688337 7
-1.5836629 0.78303885 0.15091355 12
-1.5514987 0.76747233 0.088414013 9
-1.5397642 0.76200235 0.029026872 10
-1.5659921 0.77668399 -0.4578113 15
-1.4133914 0.7013061 -0.35515395 4
-1.8631734 0.92488724 -0.39652634 39
-1.8698691 0.92861789 -0.32424384 41
-1.8476114 0.91796631 -0.24826005 18
-2.0280313 1.0080473 -0.19479308 13
-2.4843082 1.2353839 -0.14292295 2
-2.2229784 1.105915 -0.042671129 14
-1.5692301 0.78102183 0.45910454 13
-1.5737789 0.78362858 0.39673844 11
-1.5982777 0.79617542 0.33933502 12
-1.545904 0.77042252 0.26720816 6
-1.5443118 0.76996547 0.20688337 7
-1.5809197 0.78856212 0.15091355 12
-1.5532779 0.77511287 0.088674821 9
-1.5415677 0.7696054 0.029113261 11
-1.5632714 0.78214556 -0.4578113 14
-1.4109347 0.70623553 -0.35515395 4
-1.8643225 0.9335832 -0.39747953 39
-1.8710315 0.93735129 -0.32502511 38
-1.8488325 0.92663366 -0.24886853 17
-2.015595 1.0106552 -0.19392152 9
-2.4799809 1.2440481 -0.14292295 2
-2.2235725 1.1159104 -0.042758394 15
-1.5664942 0.78649473 0.45910454 13
-1.5753875 0.79130417 0.39786234 11
-1.5998746 0.80395353 0.34028822 11
-1.5476178 0.7780323 0.26798946 6
-1.5460484 0.77758133 0.20749186 7
-1.5826072 0.7963146 0.15134846 12
-1.5505629 0.78053015 0.088674821 8
-1.543337 0.77723038 0.029199651 10
-1.5605316 0.78759766 -0.4578113 14
-1.4128098 0.71335214 -0.35627785 3
-1.8654332 0.94229817 -0.3984327 39
-1.8677483 0.94387668 -0.32502511 40
-1.8455867 0.93308163 -0.24886853 18
-2.0031652 1.0131884 -0.19304997 4
-2.4800782 1.2549516 -0.14318375 2
-2.224124 1.1259232 -0.042845655 16
-1.5680479 0.79414016 0.46039781 13
-1.5726157 0.79679847 0.39786234 11
-1.5970585 0.80953318 0.34028822 11
-1.5492971 0.78566331 0.26877078 6
-1.5433247 0.78297329 0.20749186 7
-1.5798179 0.80183405 0.15134846 12
-1.5522809 0.78819853 0.088935629 9
-1.5406145 0.78261292 0.029199651 10
-1.557773 0.7930401 -0.4578113 14
-1.4103113 0.71827948 -0.35627785 3
-1.8708793 0.95326066 -0.40033907 39
-1.8732419 0.95487624 -0.32658774 40
-1.8467395 0.94177294 -0.24947701 20
-1.986306 1.0133837 -0.19174264 16
-2.4801302 1.2658712 -0.14344457 2
-2.2246327 1.1359535 -0.04293292 15
-1.5695674 0.80180603 0.46169105 13
-1.5741632 0.80450022 0.39898625 11
-1.5942229 0.81510305 0.34028822 12
-1.5465453 0.79106659 0.26877078 6
-1.5405822 0.78835571 0.20749186 7
-1.5814431 0.80961365 0.15178336 12
-1.5495201 0.79361218 0.088935629 9
-1.5423225 0.79026562 0.02928604 10
-1.5549953 0.798473 -0.4578113 14
-1.4034619 0.72097176 -0.35515395 3
-1.871906 0.96202898 -0.40129229 38
-1.8742894 0.96366751 -0.32736906 39
-1.8478543 0.95048362 -0.2500855 20
-1.9738985 1.0157529 -0.19087109 26
-2.4801357 1.2768062 -0.14370537 2
-2.2250984 1.1460009 -0.043020178 16
-1.5710526 0.80949217 0.46298429 13
-1.575676 0.81222248 0.40011016 11
-1.5957304 0.82291257 0.34124142 12
-1.5481633 0.79872453 0.26955208 7
-1.5422308 0.79600477 0.20810033 7
-1.5830332 0.81741428 0.15221827 12
-1.5511767 0.80130786 0.089196436 8
-1.5395545 0.79564446 0.02928604 10
-1.5521986 0.80389601 -0.4578113 14
-1.3922848 0.72138363 -0.35290614 3
-1.8772517 0.97307485 -0.40319866 38
-1.8796825 0.97475117 -0.32893169 37
-1.8489305 0.9592135 -0.25069398 20
-1.948236 1.0111641 -0.18869218 13
-2.4800951 1.2877567 -0.14396618 2
-2.2255211 1.1560655 -0.043107443 15
-1.5682173 0.81497127 0.46298429 13
-1.5728313 0.81771767 0.40011016 12
-1.5928483 0.8284778 0.34124142 12
-1.5453658 0.80412376 0.26955208 6
-1.5394429 0.80138326 0.20810033 6
-1.5845881 0.8252359 0.15265319 12
-1.5483701 0.80671763 0.089196436 9
-1.5410609 0.80359346 0.029372429 10
-1.5492417 0.80957973 -0.4578113 14
-1.3853139 0.72422457 -0.35178223 3
-1.8780218 0.98222357 -0.40415183 49
-1.884849 0.98621309 -0.33049431 50
-1.8454024 0.96598375 -0.25069398 22
-1.9533417 1.0229194 -0.18956374 7
-2.4842045 1.3014723 -0.1444878 2
-2.2256968 1.1665355 -0.043194704 15
-1.5694971 0.82295644 0.46427754 13
-1.5741378 0.8257401 0.40123406 11
-1.5941472 0.83659106 0.34219459 11
-1.5467808 0.81207812 0.27033341 7
-1.540889 0.80932796 0.20870881 7
-1.5859622 0.83335507 0.15308809 12
-1.5498228 0.81471062 0.089457244 9
-1.5382464 0.80896783 0.029372429 10
-1.5464064 0.81498265 -0.4578113 15
-1.3741579 0.72451133 -0.34953442 3
-1.8789234 0.99106312 -0.40510502 37
-1.8857625 0.9950912 -0.33127561 57
-1.8464081 0.97473645 -0.25130248 18
-1.9453547 1.0274055 -0.18912795 7
-2.4796464 1.3101358 -0.1444878 2
-2.2260311 1.1766338 -0.043281965 16
-1.5708846 0.83068782 0.46557081 13
-1.5755525 0.83350813 0.40235797 12
-1.5955555 0.8444466 0.34314778 12
-1.5439368 0.81747246 0.27033341 6
-1.5424402 0.81702477 0.2093173 7
-1.5830436 0.83888602 0.15308809 12
-1.551381 0.82245433 0.089718051 9
-1.5398297 0.81667477 0.029458819 10
-1.5392872 0.81810892 -0.45651805 14
-1.363017 0.724729 -0.34728661 3
-1.8754526 0.99761569 -0.40510502 36
-1.8866372 1.0039877 -0.33205694 35
-1.8429943 0.98117566 -0.25130248 17
-1.9505492 1.0388727 -0.18999954 7
-2.4794645 1.3211316 -0.1447486 2
-2.2263217 1.1867485 -0.043369226 16
-1.5722373 0.83843887 0.46686405 13
-1.576932 0.84129596 0.40348187 11
-1.5969281 0.8523221 0.34410098 12
-1.5454303 0.82518297 0.27111471 6
-1.5439564 0.82474226 0.20992577 7
-1.5844988 0.84675443 0.153523 12
-1.5485007 0.82786459 0.089718051 9
-1.5413779 0.82440251 0.029545208 10
-1.5279081 0.81891388 -0.45393154 15
-1.3647728 0.73178476 -0.34841052 2
-1.8719587 1.0041561 -0.40510502 37
-1.8787695 1.0082319 -0.33127561 39
-1.8439306 0.98995036 -0.25191092 21
-1.951299 1.0480319 -0.19043529 8
-2.4792364 1.3321418 -0.14500941 2
-2.2265692 1.1968796 -0.043456491 16
-1.5693009 0.8439219 0.46686405 12
-1.5739857 0.84679544 0.40348187 11
-1.5939432 0.8578912 0.34410098 12
-1.5468888 0.83291382 0.27189603 6
-1.5454372 0.83248025 0.21053427 7
-1.5859183 0.85464323 0.1539579 12
-1.5499966 0.83563441 0.089978859 8
-1.5428908 0.83215111 0.029631598 10
-1.5165423 0.81964928 -0.45134503 15
-1.3364959 0.72264063 -0.34166712 2
-1.8684422 1.0106844 -0.40510502 38
-1.8752387 1.0147839 -0.33127561 39
-1.8404639 0.99638087 -0.25191092 20
-1.9563886 1.0595812 -0.19130686 6
-2.4745712 1.3407879 -0.14500941 2
-2.2311678 1.2094092 -0.043631013 16
-1.5705913 0.85169703 0.46815729 13
-1.5753026 0.8546077 0.40460578 11
-1.595253 0.86579114 0.34505415 11
-1.5483121 0.8406648 0.27267733 6
-1.546883 0.84023857 0.21114275 7
-1.5829254 0.86017394 0.1539579 12
-1.5514572 0.84342468 0.090239674 8
-1.5443685 0.83992028 0.029717987 10
-1.50519 0.82031554 -0.44875854 18
-1.3254101 0.72263706 -0.33941931 2
-1.864903 1.0172004 -0.40510502 39
-1.8760203 1.023689 -0.33205694 41
-1.8413308 1.0051773 -0.25251943 20
-1.9701641 1.0759534 -0.19304997 5
-2.4742579 1.3518115 -0.14527021 2
-2.2313192 1.2195877 -0.043718275 17
-1.5676087 0.85717422 0.46815729 13
-1.5765843 0.86243957 0.40572968 11
-1.5965267 0.87371075 0.34600735 11
-1.5497 0.84843594 0.27345866 6
-1.5439405 0.84563303 0.21114275 7
-1.5842814 0.86808771 0.15439282 12
-1.5485036 0.84883511 0.090239674 9
-1.5414273 0.84530598 0.029717987 10
-1.4938517 0.82091242 -0.446172 17
nan nan nan 0
-1.8656416 1.0260692 -0.40605819 38
-1.8724353 1.0302315 -0.33205694 43
-1.8421583 1.0139916 -0.2531279 22
-1.9751227 1.0876293 -0.19392152 10
-2.4738975 1.3628495 -0.14553103 2
-2.231427 1.2297821 -0.04380554 16
-1.5688366 0.86497295 0.46945056 13
-1.5735642 0.86793762 0.40572968 11
-1.5977646 0.88164967 0.34696054 12
-1.5467288 0.85384023 0.27345866 6
-1.5453237 0.8534165 0.21175122 7
-1.5856014 0.87602133 0.15482773 12
-1.5499012 0.85665059 0.090500481 8
-1.542842 0.85310048 0.029804377 10
-1.490977 0.82612193 -0.446172 16
nan nan nan 0
-1.8620484 1.0325751 -0.40605819 39
-1.8731464 1.0391569 -0.33283821 42
-1.8429471 1.022824 -0.25373638 22
-1.9843786 1.1017706 -0.19522887 8
-2.4734902 1.3739012 -0.14579183 2
-2.2314906 1.239992 -0.043892797 16
-1.5700293 0.87279063 0.47074381 13
-1.5747828 0.87579304 0.40685359 11
-1.5989666 0.88960785 0.34791371 11
-1.5480542 0.86163592 0.27423996 6
-1.5423354 0.85880548 0.21175122 7
-1.582534 0.88155079 0.15482773 12
-1.5469016 0.8620556 0.090500481 8
-1.5442214 0.86091524 0.029890768 10
-1.4880843 0.83132136 -0.446172 15
nan nan nan 0
-1.862717 1.0414642 -0.40701142 39
-1.8695077 1.045689 -0.33283821 44
-1.8436964 1.0316743 -0.25434485 22
-1.9848669 1.1111238 -0.19566463 7
-2.4730358 1.3849666 -0.14605264 2
-2.2315099 1.2502172 -0.043980062 17
-1.5711863 0.88062721 0.47203705 12
-1.5759658 0.88366753 0.40797749 11
-1.6001321 0.89758515 0.34886691 11
-1.5536509 0.87186819 0.27580258 6
-1.5436556 0.86661345 0.21235971 7
-1.5837902 0.88950861 0.15526263 12
-1.5482363 0.86989588 0.090761289 8
-1.541207 0.86630034 0.029890768 10
-1.4851735 0.83651066 -0.446172 15
-1.3533926 0.76259756 -0.34953442 2
-1.863346 1.05037 -0.40796459 40
-1.8701477 1.0546345 -0.33361953 39
-1.8400838 1.0381037 -0.25434485 24
-1.985314 1.1204938 -0.19610043 6
-2.4725342 1.3960456 -0.14631344 2
-2.2358379 1.2629164 -0.044154584 16
-1.5681027 0.88610631 0.47203705 12
-1.5771128 0.89156091 0.4091014 11
-1.5969894 0.90316522 0.34886691 11
-1.5548962 0.87971789 0.27658388 6
-1.5406212 0.87199658 0.21235971 6
-1.5850099 0.89748597 0.15569754 12
-1.5451902 0.87529492 0.090761289 8
-1.5423703 0.8744089 0.029977158 10
-1.4820974 0.84194857 -0.446172 15
nan nan nan 0
-1.8637505 1.0596184 -0.40891778 39
-1.8705627 1.0639234 -0.33440083 39
-1.8405801 1.0472953 -0.25495335 24
-1.9855225 1.1302269 -0.1965362 7
-2.4760787 1.4100403 -0.14683506 2
-2.2355378 1.2735773 -0.044241846 17
-1.5690407 0.89423925 0.47333032 13
-1.5780669 0.8997485 0.4102253 11
-1.5979319 0.91144425 0.34982011 11
-1.5602403 0.89030623 0.27814651 13
-1.5374148 0.87763739 0.21235971 6
-1.5860353 0.90575951 0.15613246 12
-1.5463073 0.88342941 0.091022097 8
-1.5393088 0.87978745 0.029977158 10
-1.4791495 0.84711683 -0.446172 16
-1.3352189 0.76499659 -0.34616271 2
-1.8642988 1.0685583 -0.40987095 39
-1.8711218 1.072903 -0.33518216 40
-1.8412182 1.0561833 -0.2555618 23
-1.9902055 1.1421089 -0.19740775 8
-2.4754722 1.4211609 -0.14709587 2
-2.2354138 1.2838629 -0.044329111 17
-1.5659096 0.89971077 0.47333032 12
-1.5749165 0.9052515 0.4102253 11
-1.5947405 0.91701651 0.34982011 11
-1.5656844 0.9006722 0.27970913 13
-1.5386434 0.88547403 0.21296819 7
-1.5871806 0.9137755 0.15656736 12
-1.5475409 0.89131367 0.091282904 9
-1.54056 0.88765115 0.030063547 9
-1.4761834 0.85227489 -0.446172 27
-1.3705105 0.79158354 -0.35627785 2
-1.8648074 1.0775151 -0.41082415 40
-1.8716407 1.0818993 -0.33596346 40
-1.8418164 1.0650883 -0.2561703 22
-1.9905182 1.1515436 -0.19784354 9
-2.474818 1.4322945 -0.14735669 2
-2.2395713 1.2966678 -0.044503633 16
-1.5669388 0.90759212 0.47462356 12
-1.5759625 0.91318613 0.41134921 11
-1.5957763 0.92503917 0.35077327 11
-1.5668032 0.90860945 0.28049043 13
-1.5355431 0.89083946 0.21296819 7
-1.5839813 0.91931021 0.15656736 12
-1.5487385 0.89921731 0.091543712 8
-1.541775 0.89553416 0.030149937 10
-1.4731995 0.85742253 -0.446172 39
-1.3719493 0.79881418 -0.35740176 2
-1.8652761 1.0864884 -0.41177732 39
-1.8721199 1.0909125 -0.33674479 39
-1.8423748 1.0740104 -0.25677878 25
-1.995092 1.1635033 -0.19871509 10
-2.4741161 1.4434406 -0.14761749 2
-2.2393491 1.3069975 -0.044590894 17
-1.5679321 0.91549152 0.4759168 13
-1.5727654 0.91868168 0.41134921 11
-1.5967755 0.93308026 0.35172647 11
-1.5678856 0.91656548 0.28127176 13
-1.5367082 0.89869952 0.21357667 6
-1.5850619 0.92734903 0.15700227 12
-1.5498995 0.90714025 0.091804519 8
-1.5429537 0.9034366 0.030236326 9
-1.4743634 0.86500388 -0.4474653 48
-1.3691525 0.80359828 -0.35740176 2
-1.8657048 1.0954781 -0.41273054 39
-1.8725587 1.099942 -0.33752608 40
-1.8428934 1.0829492 -0.25738728 24
-1.9996063 1.1755089 -0.19958664 10
-2.4733667 1.4545995 -0.1478783 2
-2.2390821 1.3173416 -0.044678159 17
-1.5688894 0.92340893 0.47721007 12
-1.5737473 0.92663813 0.41247311 11
-1.5977378 0.94113946 0.35267967 11
-1.5689315 0.92454016 0.28205305 13
-1.537837 0.90657842 0.21418515 7
-1.5861057 0.93540668 0.15743718 12
-1.5467234 0.91254491 0.091804519 8
-1.5440961 0.91135812 0.030322714 10
-1.4713351 0.87014514 -0.4474653 43
-1.3747253 0.81333423 -0.35964957 2
-1.8660932 1.1044838 -0.41368371 40
-1.8729572 1.1089879 -0.33830741 43
-1.8433717 1.0919048 -0.25799572 24
-2.0083463 1.1900996 -0.200894 9
-2.4725692 1.4657705 -0.1481391 2
-2.2387702 1.3276994 -0.04476542 17
-1.5698103 0.93134415 0.47850332 12
-1.5746927 0.93461251 0.41359702 11
-1.5986632 0.94921678 0.35363284 11
-1.5699404 0.93253303 0.28283435 13
-1.5389295 0.91447622 0.21479362 7
-1.5828308 0.94093752 0.15743718 12
-1.5478202 0.92049062 0.092065327 8
-1.5409055 0.91674244 0.030322714 9
-1.4682888 0.87527573 -0.4474653 18
-1.3844314 0.82561433 -0.36302131 2
-1.8664418 1.1135058 -0.41463691 39
-1.8733155 1.1180501 -0.33908871 42
-1.8438103 1.1008768 -0.25860423 22
-2.0127323 1.202211 -0.20176555 7
-2.471724 1.4769536 -0.14839992 2
-2.2384129 1.3380711 -0.044852681 18
-1.5706949 0.93929702 0.47979656 12
-1.5756018 0.94260478 0.41472092 11
-1.5995518 0.95731205 0.35458606 11
-1.5709131 0.94054449 0.28361568 13
-1.5399855 0.92239255 0.21540211 7
-1.5838094 0.94901705 0.1578721 11
-1.5488805 0.92845511 0.092326134 8
-1.5419834 0.92468655 0.030409103 9
-1.4652245 0.88039571 -0.4474653 11
-1.8993304 1.1416841 -0.5023855 8
-1.86675 1.1225436 -0.41559011 39
-1.8736334 1.1271281 -0.33987004 39
-1.8442084 1.1098652 -0.2592127 24
-2.0170581 1.2143676 -0.20263711 6
-2.4751081 1.4907248 -0.14892153 2
-2.2380104 1.3484565 -0.044939946 17
-1.5715432 0.94726741 0.48108983 12
-1.5723019 0.9480989 0.41472092 11
-1.5962005 0.96288961 0.35458606 11
-1.5718488 0.94857389 0.28439698 13
-1.5410051 0.93032748 0.21601059 7
-1.5847509 0.95711493 0.158307 11
-1.5456301 0.93385601 0.092326134 8
-1.538584 0.93033201 0.030409103 9
-1.4619879 0.88576019 -0.4474653 6
-1.8909667 1.1461124 -0.50126159 31
-1.8668202 1.131923 -0.41654328 39
-1.8737123 1.1365492 -0.34065136 42
-1.844371 1.1191918 -0.25982118 24
-2.025367 1.2295066 -0.20394443 6
-2.4781632 1.5049703 -0.14944315 2
-2.2373257 1.3592459 -0.045027204 18
-1.572188 0.95552957 0.4823831 12
-1.5729793 0.95638639 0.41584483 11
-1.5968541 0.97128427 0.35553923 11
-1.5725803 0.95689589 0.2851783 13
-1.5418241 0.93854976 0.21661907 7
-1.5854865 0.96550757 0.15874191 11
-1.5464612 0.94211257 0.092586942 8
-1.5395961 0.93829876 0.030495493 9
-1.4671313 0.8958922 -0.45005178 4
-1.8786393 1.1476265 -0.49901381 32
-1.8670458 1.1409919 -0.4174965 41
-1.8739469 1.1456585 -0.34143266 39
-1.8446869 1.1282125 -0.26042965 24
-2.0338094 1.2443677 -0.20525178 5
-2.4771535 1.5162181 -0.14970396 2
-2.2368309 1.369658 -0.045114469 17
-1.5729617 0.96353453 0.48367634 12
-1.5737854 0.96441686 0.4169687 11
-1.5934539 0.97685248 0.35553923 11
-1.5734403 0.96496117 0.2859596 13
-1.5427686 0.94652134 0.21722755 7
-1.5863519 0.97364169 0.15917681 11
-1.5474182 0.95011759 0.092847757 8
-1.5405712 0.94628382 0.030581882 9
-1.480448 0.911134 -0.45522478 8
-1.8912168 1.1643946 -0.5035094 25
-1.8672308 1.1500762 -0.41844967 40
-1.8741409 1.1547836 -0.34221399 41
-1.8407375 1.1346446 -0.26042965 23
-2.0379326 1.2566882 -0.20612334 5
-2.4803452 1.5300988 -0.15022558 2
-2.2362907 1.3800831 -0.04520173 17
-1.5695887 0.96901935 0.48367634 12
-1.5704094 0.96990454 0.4169687 11
-1.5942099 0.98498857 0.35649243 11
-1.5742635 0.97304428 0.2867409 13
-1.5394553 0.95190084 0.21722755 7
-1.5871797 0.98179352 0.15961173 11
-1.5483383 0.95814085 0.093108565 8
-1.5415094 0.95428711 0.030668272 9
-1.4444233 0.89592952 -0.44487876 16
-1.8871408 1.170989 -0.5035094 16
-1.8673751 1.1591758 -0.41940287 39
-1.874294 1.163924 -0.34299526 38
-1.8409812 1.143682 -0.26103815 24
-2.0504556 1.2743111 -0.20786645 9
-2.4749892 1.5387474 -0.15022558 2
-2.2399497 1.3931614 -0.045376252 18
-1.5702975 0.97704393 0.48496959 12
-1.5711505 0.9779551 0.41809264 11
-1.5949285 0.99314183 0.35744563 11
-1.575049 0.98114461 0.28752223 13
-1.5403351 0.95989352 0.21783602 6
-1.5837427 0.98732781 0.15961173 11
-1.549221 0.96618187 0.093369372 8
-1.5381689 0.95966214 0.030668272 9
-1.4167141 0.88560504 -0.43711925 17
-1.8913035 1.1827358 -0.50575721 13
-1.8674784 1.1682901 -0.42035604 40
-1.8744062 1.1730793 -0.34377658 38
-1.841184 1.1527349 -0.2616466 23
-2.0544379 1.2867486 -0.208738 14
-2.4865277 1.5579821 -0.15126881 2
-2.2393091 1.4036269 -0.045463517 16
-1.5709693 0.98508519 0.48626286 12
-1.5718545 0.98602253 0.41921654 11
-1.5956095 1.0013121 0.3583988 11
-1.5757974 0.9892624 0.28830352 13
-1.536975 0.96526438 0.21783602 6
-1.5845045 0.99549997 0.16004664 11
-1.5500665 0.9742409 0.09363018 8
-1.5390416 0.96768647 0.030754661 9
-1.4217871 0.89569384 -0.43970576 14
-1.8912851 1.1919279 -0.50688112 22
-1.8675411 1.1774194 -0.42130923 40
-1.8744769 1.1822493 -0.34455788 38
-1.8413463 1.161803 -0.2622551 24
-2.0541458 1.2965707 -0.20917377 11
-2.47263 1.5613204 -0.15074719 2
-2.2386224 1.4141048 -0.045550779 17
-1.571604 0.99314302 0.4875561 12
-1.5725211 0.99410665 0.42034045 11
-1.5962529 1.0094992 0.35935199 11
-1.5765079 0.9973973 0.28908485 13
-1.5335963 0.97062361 0.21783602 6
-1.5810199 1.0010248 0.16004664 11
-1.5466565 0.97964573 0.09363018 8
-1.5398775 0.97572857 0.030841051 9
-1.4186521 0.90065128 -0.43970576 14
-1.8912257 1.2011346 -0.50800502 30
-1.8675625 1.1865635 -0.4222624 40
-1.8745068 1.1914347 -0.34533921 39
-1.8414676 1.1708862 -0.26286358 25
-2.0538101 1.3064065 -0.20960957 13
-2.4840155 1.5806646 -0.15179043 2
-2.23789 1.4245952 -0.04563804 17
-1.5722017 1.0012172 0.48884934 12
-1.5731505 1.0022075 0.42146435 11
-1.5968586 1.0177029 0.36030519 11
-1.5730168 1.0028943 0.28908485 13
-1.5385673 0.9813084 0.21905299 6
-1.5817151 1.0092168 0.16048154 11
-1.5474364 0.98772514 0.093890987 8
-1.5364621 0.98109782 0.030841051 9
-1.4358418 0.9186123 -0.446172 10
-1.891125 1.2103553 -0.50912893 34
-1.8675429 1.1957217 -0.42321563 39
-1.8744949 1.2006342 -0.34612051 38
-1.8415477 1.1799846 -0.26347208 23
-2.0492375 1.3135676 -0.20960957 14
nan nan nan 0
-2.2371113 1.4350975 -0.045725301 17
-1.5727621 1.0093077 0.49014261 12
-1.5737425 1.0103247 0.42258826 11
-1.5974263 1.0259234 0.36125836 11
-1.5736613 1.0110486 0.28986615 13
-1.551832 0.99740624 0.22148691 6
-1.5823724 1.0174258 0.16091645 11
-1.5439789 0.99312073 0.093890987 8
-1.5372323 0.98916036 0.03092744 9
-1.4529233 0.93670422 -0.4526383 12
-1.8909829 1.2195898 -0.51025283 37
-1.8674821 1.2048944 -0.4241688 39
-1.8785912 1.2125264 -0.34768313 39
-1.8457561 1.1917896 -0.26468903 24
-2.0488236 1.3234154 -0.21004534 10
-2.1877413 1.4136889 -0.13405547 6
-2.240485 1.4483255 -0.045899823 18
-1.5692294 1.0147915 0.49014261 13
-1.574297 1.0184584 0.42371216 11
-1.5979561 1.0341597 0.36221156 10
-1.5742683 1.0192195 0.29064748 13
-1.5566719 1.0082127 0.22270387 13
-1.5829915 1.0256515 0.16135137 11
