# .PCD v0.7 - Point Cloud Data file format
VERSION 0.7
FIELDS x y z intensity
SIZE 4 4 4 4
TYPE F F F F
COUNT 1 1 1 1
WIDTH 1429
HEIGHT 1
VIEWPOINT 0 0 0 1 0 0 0
POINTS 1429
DATA ascii
2.7725348 3.3170907 0.83213335 47
2.7710607 3.3141513 0.67739612 38
2.7755806 3.3183801 0.52572715 46
2.7734718 3.3146832 0.37402201 47
2.7711391 3.3107207 0.22351271 40
2.7750514 3.3142195 0.074035801 51
2.2749271 2.7121139 -0.93760788 5
2.5894415 3.0859761 -0.92047811 50
2.5775146 3.0706737 -0.77112937 21
2.3556173 2.805326 -0.5734818 29
2.4186323 2.8793507 -0.4563604 7
2.7739575 3.3011906 -0.37389815 57
2.7234476 3.2399321 -0.21907896 20
2.7176287 3.2318647 -0.073038317 100
2.7886021 3.315093 1.1497012 50
2.7882354 3.3134828 0.99016023 35
2.7904186 3.3149025 0.83403975 43
2.7921553 3.3157911 0.67974007 35
2.7935419 3.3162627 0.52694416 38
2.7946548 3.3164093 0.37532678 38
2.7923334 3.3124807 0.22429512 40
2.7936268 3.3116689 0.07420858 40
nan nan nan 0
2.6101711 3.0876269 -0.92384988 38
2.6172762 3.0949361 -0.77970797 39
2.3754523 2.8079846 -0.57582575 33
2.4227576 2.8628898 -0.45514345 7
2.7956934 3.3024063 -0.37520546 57
2.7385311 3.2337391 -0.21933977 19
2.7326877 3.225697 -0.073125578 100
2.8101022 3.3159044 1.153581 39
2.8066621 3.310674 0.9924081 33
2.8120735 3.3158832 0.83689934 39
2.8138742 3.3168328 0.68208396 38
2.8153117 3.317353 0.52876955 39
2.8164625 3.3175356 0.3766315 32
2.8141522 3.3136423 0.22507757 38
2.8148801 3.3133268 0.074467748 39
nan nan nan 0
2.2608845 2.6555912 -0.79572469 9
2.6344287 3.0932548 -0.78161442 39
2.391645 2.807194 -0.57738841 36
2.4262979 2.8468611 -0.45392647 6
2.8168983 3.3039982 -0.3765128 57
2.7530425 3.2279592 -0.21960059 18
2.7471752 3.2199411 -0.07321284 97
2.8279302 3.3134224 1.1561675 38
2.827692 3.3119726 0.99577975 36
2.8331935 3.3172438 0.83975887 40
2.8318512 3.3144999 0.68364662 38
2.8365479 3.3188241 0.53059506 40
2.8377361 3.3190415 0.37793621 34
2.8354383 3.3151822 0.22585998 39
2.8361788 3.3148766 0.074726917 42
2.8160052 3.2854896 -1.1484081 33
2.2352569 2.606998 -0.78336173 10
2.6516013 3.0914915 -0.78352082 39
2.411077 2.8100727 -0.5797323 38
2.4297557 2.8308427 -0.45270953 6
2.8349042 3.3017039 -0.37738436 56
2.7642934 3.2183294 -0.21960059 17
2.7583981 3.2103322 -0.07321284 96
2.8489239 3.3145194 1.1600473 36
2.8487649 3.3131642 0.99915147 32
2.8543582 3.3184974 0.84261847 39
2.8530669 3.3158255 0.68599051 36
2.8545902 3.3164251 0.53181195 38
2.8558049 3.3166652 0.37880605 35
2.8567691 3.3166142 0.2266424 38
2.8575225 3.316318 0.074986078 39
2.8369241 3.286608 -1.1522877 32
2.6550975 3.0748749 -0.9283455 37
2.6720016 3.0933599 -0.78638035 39
2.420871 2.8016391 -0.5797323 39
2.4298859 2.81108 -0.45088407 5
2.8561859 3.3030913 -0.3786917 56
2.7787771 3.2124369 -0.21986137 17
2.7728591 3.2044649 -0.073300101 91
2.8699596 3.31551 1.1639271 37
2.8698809 3.3142498 1.0025232 33
2.8755655 3.3196437 0.845478 36
2.874326 3.3170428 0.68833447 36
2.8759012 3.3176906 0.5336374 38
2.8771546 3.3179662 0.38011077 34
2.8748724 3.3141656 0.22716403 39
2.8789108 3.3176508 0.075245254 39
2.851548 3.2803309 -1.153581 32
2.6881933 3.0913227 -0.93621284 44
2.6892259 3.0914207 -0.78828669 39
2.4403617 2.8043485 -0.58207625 39
2.4331665 2.7950945 -0.4496671 5
2.8775117 3.3043704 -0.37999907 58
2.7899737 3.2027175 -0.21986137 16
2.7840278 3.1947663 -0.073300101 97
2.8878627 3.3127527 1.1665134 36
2.8878365 3.3115559 1.004771 33
2.8968153 3.320682 0.84833759 35
2.8923817 3.3144314 0.68989712 36
2.8972559 3.3188477 0.53546286 38
2.8985479 3.3191578 0.38141549 35
2.8962789 3.3153915 0.22794645 39
2.8970535 3.31511 0.075418033 39
nan nan nan 0
2.7118068 3.0965812 -0.94070846 25
2.7064693 3.0893986 -0.79019308 39
2.4891951 2.8403826 -0.59145194 34
2.4363654 2.7791207 -0.44845015 5
2.8955965 3.3017952 -0.38087058 58
2.8044293 3.196713 -0.22012219 15
2.7984602 3.188786 -0.073387362 96
2.9089682 3.3135412 1.1703933 36
2.9090233 3.3124375 1.0081428 32
2.9181075 3.3216121 0.85119712 38
2.9137139 3.3154435 0.69224101 35
2.9186537 3.3198957 0.53728831 38
2.9166956 3.3165007 0.38228533 32
2.9177284 3.3165081 0.22872886 40
2.9185159 3.316236 0.075677201 39
2.2259891 2.5248888 -0.89105082 6
2.2746611 2.5791888 -0.78448564 5
2.7237313 3.0872936 -0.79209942 39
2.5415776 2.8798122 -0.60160899 14
2.4493361 2.7743196 -0.44905862 6
2.9169965 3.3028679 -0.38217792 58
2.818877 3.1906464 -0.220383 16
2.8128848 3.182744 -0.073474631 95
2.9301143 3.3142221 1.174273 35
2.9302511 3.3132114 1.0115144 29
2.9394417 3.3224344 0.85405672 37
2.9318156 3.3126493 0.69380367 33
2.9400933 3.3208346 0.53911376 37
2.9381616 3.317486 0.38359004 33
2.9359097 3.3137779 0.22925049 38
2.9400215 3.3172522 0.07593637 39
2.2572355 2.5423858 -0.90010357 25
2.3062973 2.5967321 -0.79235297 17
2.7410114 3.0851059 -0.79400587 39
2.5581758 2.8783057 -0.60317165 12
2.4656005 2.7731705 -0.45027557 5
2.9384387 3.3038316 -0.38348529 58
2.8299971 3.1807873 -0.220383 16
2.8239775 3.1729059 -0.073474631 95
2.9513001 3.3147955 1.1781528 37
2.9515197 3.3138773 1.0148861 30
2.9608164 3.3231475 0.85691625 37
2.9532182 3.3134553 0.69614756 36
2.9615757 3.3216643 0.54093915 39
2.9596703 3.3183615 0.38489476 34
2.9574318 3.3146865 0.23003291 39
2.9582407 3.3144288 0.076109149 40
nan nan nan 0
2.2991076 2.570509 -0.78673345 10
2.7517638 3.0755193 -0.79400587 35
2.5682073 2.8693585 -0.60317165 11
2.4785759 2.7682445 -0.45088407 6
2.9599228 3.3046849 -0.3847926 56
2.8444147 3.174608 -0.22064382 16
2.8383722 3.1667516 -0.073561884 96
2.97575 3.3188577 1.1833258 37
2.9728284 3.314435 1.0182579 32
2.9789543 3.3200986 0.8588227 37
2.974663 3.3141522 0.69849151 36
2.9797838 3.3186922 0.54215616 39
2.9812212 3.3191273 0.3861995 33
2.9789958 3.3154857 0.23081534 42
2.9798183 3.315237 0.076368317 45
2.9503767 3.2767253 -1.1703933 37
2.2917631 2.5443676 -0.78111392 3
2.759197 3.0622485 -0.79305267 19
2.5715945 2.8530397 -0.60160899 10
2.4915471 2.7632616 -0.45149252 6
2.9814484 3.3054287 -0.38609993 54
2.855479 3.1646597 -0.22064382 15
2.8494091 3.1568248 -0.073561884 97
2.9970272 3.3192041 1.1872054 38
2.9941771 3.3148847 1.0216296 33
3.0003972 3.3206055 0.86168224 34
2.9961483 3.3147399 0.70083547 34
3.0013356 3.3193138 0.54398155 38
3.0028131 3.319783 0.38750422 32
3.0006015 3.3161745 0.23159777 38
3.0014369 3.3159344 0.076627485 39
2.9747741 3.2807188 -1.1755663 34
2.3169968 2.5543957 -0.78673345 2
2.763273 3.0453286 -0.79114634 12
2.5782187 2.8403888 -0.60082769 12
2.4978414 2.7508736 -0.45088407 6
3.0063646 3.3097494 -0.38784304 46
2.8698661 3.1583686 -0.22090463 15
2.8637736 3.1505585 -0.073649146 93
3.0183434 3.319443 1.1910853 38
3.0155649 3.3152246 1.0250013 34
3.0218801 3.3210032 0.86454177 37
3.017674 3.3152177 0.70317936 33
3.0229278 3.3198256 0.54580706 37
3.0244455 3.3203282 0.38880894 32
3.022248 3.3167524 0.2323802 38
3.0230966 3.3165207 0.076886654 39
2.9959779 3.2810144 -1.1794461 30
2.3357568 2.5570836 -0.79010516 2
2.7705753 3.0320408 -0.79019308 12
2.5881178 2.831372 -0.60082769 12
2.5040793 2.7384751 -0.45027557 5
nan nan nan 0
2.8808737 3.1483319 -0.22090463 15
2.8781295 3.1442306 -0.073736414 95
3.0396969 3.3195729 1.194965 36
3.0369916 3.3154562 1.028373 31
3.0434022 3.3212907 0.8674013 42
3.0392387 3.3155851 0.70552331 35
3.0445602 3.3202267 0.54763246 38
3.0427513 3.3170919 0.38967878 32
3.0439348 3.3172195 0.23316261 38
3.0447969 3.3169966 0.077145815 39
2.9943354 3.2563155 -1.174273 13
2.3545637 2.5596721 -0.79347688 2
2.7877896 3.0295751 -0.79209942 14
2.6113641 2.8368549 -0.60395294 14
2.5068996 2.7224162 -0.44905862 6
3.0428963 3.3033345 -0.38958615 39
2.8952293 3.1419282 -0.22116543 14
2.8890874 3.134165 -0.073736414 95
3.0578148 3.3160441 1.1975516 37
3.0584562 3.315578 1.0317447 31
3.0649631 3.3214688 0.87026095 37
3.060843 3.3158424 0.70786721 37
3.066232 3.3205175 0.54945791 38
3.0644512 3.3174272 0.39098349 33
3.0656619 3.3175759 0.23394506 38
3.069931 3.3210328 0.077491388 39
2.9400523 3.1749675 -1.1484081 5
2.3701062 2.5585859 -0.79572469 5
2.7883391 3.0090251 -0.78923988 10
2.624608 2.8313439 -0.60473424 14
2.5163875 2.7136486 -0.44905862 9
3.0679588 3.3072999 -0.39132926 56
2.906179 3.131803 -0.22116543 14
2.9034109 3.1277251 -0.073823676 95
3.0792305 3.3159673 1.2014314 37
3.0799589 3.3155909 1.0351164 31
3.0865619 3.3215361 0.87312049 34
3.0824866 3.3159897 0.71021116 36
3.0913224 3.324331 0.5518918 38
3.0861905 3.317651 0.39228821 34
3.0874281 3.3178203 0.23472747 39
3.0917242 3.321274 0.077750549 39
2.9609985 3.1752822 -1.1522877 16
2.3885455 2.5614016 -0.79909641 11
2.2659574 2.4290919 -0.63768297 14
2.6508296 2.840678 -0.60864079 12
2.5253725 2.7052889 -0.44905862 16
3.0857081 3.304389 -0.39220086 46
2.9199572 3.1257973 -0.22142623 13
2.9137671 3.1180797 -0.073823676 96
3.1001048 3.316323 1.2053111 35
3.10092 3.3160348 1.0384881 31
3.1076188 3.322036 0.87598002 38
3.1035888 3.3165669 0.71255511 33
3.1125042 3.3249307 0.55371726 38
3.1107938 3.3219419 0.39402786 36
3.1086543 3.318496 0.23550989 38
3.1129758 3.3219469 0.078009717 39
3.007874 3.2041807 -1.1665134 15
2.3841314 2.5388422 -0.79460078 15
2.2744226 2.4211671 -0.63768297 8
nan nan nan 0
2.5381997 2.7000732 -0.4496671 16
3.1074605 3.3044832 -0.39350817 36
2.9342713 3.1192224 -0.22168705 14
2.9280596 3.1115305 -0.073910944 89
3.1249039 3.3195484 1.210484 35
3.1224966 3.3158309 1.0418599 34
3.1292927 3.3218863 0.87883967 36
3.1253078 3.3164961 0.714899 35
3.1343043 3.3248796 0.55554271 38
3.132623 3.3219349 0.3953326 35
3.1304979 3.3185205 0.2362923 39
3.1348457 3.3219678 0.078268886 39
3.0555377 3.2322702 -1.1807393 32
2.382937 2.5198851 -0.79122907 14
2.2828603 2.4132133 -0.63768297 2
2.7384865 2.8938441 -0.62426698 3
2.5510209 2.6948011 -0.45027557 16
3.129251 3.304466 -0.3948155 57
2.948576 3.1125863 -0.22194786 13
2.9389026 3.1012905 -0.073910944 96
3.1464407 3.3191357 1.2143638 38
3.1474617 3.3190517 1.0463555 28
3.1543815 3.3251867 0.8826524 34
3.1470635 3.316313 0.7172429 35
3.156141 3.3247166 0.55736816 37
3.1544895 3.3218153 0.39663732 33
3.15238 3.318434 0.23707475 42
3.1533103 3.318253 0.078441665 39
2.9668972 3.1166382 -1.1419418 9
2.3749187 2.4939106 -0.78560954 13
2.2980406 2.4123373 -0.63958937 2
nan nan nan 0
2.5706851 2.6966565 -0.45210102 20
3.1510794 3.304337 -0.39612287 57
2.9628692 3.1058874 -0.22220866 13
2.953162 3.0946298 -0.073998198 98
3.1680131 3.3186133 1.2182436 35
3.1691225 3.3186157 1.0497272 34
3.1761405 3.3248029 0.88551193 39
3.1688569 3.3160193 0.71958691 36
3.1780157 3.3244417 0.55919361 38
3.1798358 3.3251832 0.39837697 32
3.1742988 3.3182337 0.23785716 40
3.1752431 3.3180614 0.078700833 39
2.9209385 3.0469909 -1.1199565 11
2.3903542 2.4926383 -0.78785735 17
2.3268347 2.4255533 -0.64530849 6
2.3277719 2.4256828 -0.52582192 4
2.5869563 2.6948268 -0.453318 18
3.1729445 3.3040955 -0.39743018 57
2.9736927 3.0955262 -0.22220866 14
2.9674098 3.0879068 -0.074085459 95
3.1896193 3.3179803 1.2221234 37
3.1908185 3.3180683 1.0530989 31
3.1979353 3.3243077 0.88837147 35
3.1941104 3.3191719 0.72271216 36
3.1999266 3.3240542 0.56101906 37
3.2017884 3.3248272 0.39968169 27
3.199719 3.3215175 0.23890039 40
3.1972129 3.3177569 0.078960001 39
2.9080753 3.0124521 -1.1109037 9
2.4024251 2.4877837 -0.78898126 13
2.3523386 2.4350672 -0.65007442 5
2.3636801 2.4459529 -0.53207237 5
2.6032457 2.6929166 -0.45453495 21
3.1948462 3.3037412 -0.39873752 51
2.9879515 3.0887158 -0.22246948 14
2.9781704 3.0775299 -0.074085459 97
3.2146189 3.3207071 1.2272964 33
3.2159386 3.3209097 1.0575945 28
3.2197652 3.3237004 0.891231 35
3.2159872 3.3186414 0.72505605 32
3.2253275 3.3271174 0.56345302 37
3.2237782 3.3243585 0.40098643 28
3.2217238 3.3210797 0.23968282 42
3.2232802 3.3203642 0.079305559 39
nan nan nan 0
2.4149244 2.4824541 -0.79010516 12
2.3749399 2.4404993 -0.65388715 31
2.3864086 2.4514282 -0.53519762 7
2.6234858 2.6940238 -0.4563604 21
3.2208364 3.3062811 -0.40048063 55
2.9992523 3.0777435 -0.22246948 15
2.9929202 3.0701737 -0.074172728 99
3.2368844 3.3192759 1.2311761 32
3.2382946 3.3195629 1.0609663 32
3.2456377 3.3259284 0.89504379 33
3.2419283 3.3209674 0.7281813 33
3.2479022 3.3259256 0.56527841 39
3.2463832 3.3232093 0.40229115 30
3.244344 3.3199627 0.24046525 40
3.2453351 3.3198178 0.079564728 38
2.8011448 2.8604348 -1.0617601 15
2.4303935 2.4809699 -0.79235297 10
2.3868797 2.4356999 -0.65484035 31
2.3500073 2.3972366 -0.52504057 135
2.6398232 2.6919367 -0.45757735 19
3.2428224 3.3056855 -0.401788 57
3.0134747 3.0708196 -0.22273029 15
3.003619 3.0597076 -0.074172728 100
3.2619874 3.3217413 1.2363491 34
3.263519 3.3221409 1.0654619 29
3.2675486 3.3250816 0.89790338 35
3.2638867 3.3201962 0.7305252 35
3.2699308 3.3251834 0.56710386 39
3.2719357 3.3260608 0.4040308 32
3.2699223 3.3228536 0.2415085 40
3.2674248 3.3191569 0.079823896 39
2.9264166 2.9675653 -1.1057307 20
2.4424608 2.4759398 -0.79347688 7
2.3953676 2.4273536 -0.65484035 24
2.379178 2.4101062 -0.52972847 38
2.6422296 2.675643 -0.4563604 9
3.2683437 3.3085198 -0.4035311 59
3.0241756 3.060282 -0.22273029 15
3.0177953 3.0527599 -0.074259989 100
3.2837512 3.3206377 1.2402289 34
3.2853751 3.3211203 1.0688336 31
3.2929454 3.3276107 0.90171617 34
3.2858801 3.3193121 0.73286921 35
3.2919946 3.3243282 0.56892926 38
3.2940426 3.3252354 0.40533552 29
3.2920454 3.3220596 0.24229091 39
3.2895496 3.3183823 0.080083065 40
2.9333544 2.9539049 -1.1044375 11
2.4613893 2.4777682 -0.7968486 5
2.4072857 2.4224586 -0.65579355 25
2.3875763 2.4017866 -0.52972847 25
nan nan nan 0
3.2904112 3.3076851 -0.40483844 55
3.0383615 3.0532463 -0.22299111 15
3.03196 3.0457499 -0.074347243 98
3.3089547 3.3228443 1.245402 35
3.3107018 3.3234384 1.0733292 32
3.3149345 3.3265259 0.90457571 34
3.3113933 3.3218126 0.7359944 32
3.3175957 3.3268733 0.57136321 38
3.3161829 3.3242958 0.40664023 33
3.3142023 3.321151 0.24307333 39
3.3117092 3.3174942 0.080342241 38
2.9436476 2.9436476 -1.1044375 7
2.4769144 2.4760499 -0.79909641 6
2.4226708 2.42098 -0.65769988 23
2.3994393 2.3969281 -0.53050977 22
2.3342557 2.3309987 -0.39977169 8
3.3160377 3.3102551 -0.40658155 53
3.0525353 3.0461488 -0.22325189 15
3.0461125 3.0386789 -0.074434511 93
3.3307934 3.3215048 1.2492816 36
3.332634 3.3221807 1.0767009 30
3.3404329 3.328793 0.90838844 33
3.3334644 3.3206892 0.73833835 36
3.3397386 3.3257785 0.57318866 38
3.3418872 3.3267565 0.40837985 33
3.3363929 3.320128 0.24385574 38
3.3339016 3.3164909 0.080601402 38
2.9436235 2.9231443 -1.1005577 4
2.4993732 2.4811184 -0.80359203 3
2.4345906 2.4159658 -0.65865314 21
2.4148037 2.3954937 -0.53207237 19
2.349426 2.3298252 -0.40098864 9
3.3381844 3.3091798 -0.40788886 51
3.0702431 3.0425043 -0.22377352 15
3.0602527 3.0315454 -0.074521773 77
3.3526626 3.3200533 1.2531614 35
3.3580599 3.3242378 1.0811965 30
3.3624988 3.3274698 0.91124797 34
3.3590794 3.3229258 0.7414636 35
3.3654423 3.3280582 0.57562262 38
3.3641067 3.3255763 0.4096846 32
3.3586173 3.3189909 0.24463819 38
3.3561273 3.3153732 0.08086057 38
3.0157106 2.9738944 -1.1238362 6
2.5114884 2.4757993 -0.80471593 2
2.4500012 2.4143434 -0.66055948 21
2.4266691 2.3905158 -0.53285366 19
2.3398638 2.3041992 -0.39794627 4
3.3603642 3.3079901 -0.4091962 53
3.084404 3.0352709 -0.22403434 15
3.070816 3.0208447 -0.074521773 60
3.3780062 3.321876 1.2583344 34
3.3800666 3.3227417 1.0845683 32
3.3880963 3.329473 0.9150607 37
3.3812273 3.3215628 0.74380749 35
3.3876622 3.3267224 0.57744801 39
3.3899126 3.3277707 0.41142425 31
3.3844376 3.3212361 0.24568142 38
3.3819549 3.3176415 0.081206128 38
3.0916383 3.0275559 -1.1484081 3
2.5305598 2.4772422 -0.80808765 2
2.4654303 2.4126422 -0.66246587 21
2.4420593 2.3889375 -0.53441632 17
2.3975682 2.3445952 -0.40646499 5
3.386138 3.3101673 -0.41093931 55
3.1021221 3.0314651 -0.22455594 14
3.0884941 3.0170939 -0.074696295 64
3.3999484 3.3201883 1.2622142 34
3.4055896 3.3245363 1.0890639 27
3.4137492 3.3313382 0.91887349 32
3.4069412 3.3235338 0.74693274 33
3.413466 3.3287365 0.57988191 36
3.4122083 3.3263483 0.41272897 31
3.406738 3.3198566 0.24646384 38
3.4042578 3.3162811 0.081465296 38
3.1472011 3.0605197 -1.1652203 4
2.5461781 2.4751859 -0.81033546 2
2.4808769 2.4108632 -0.66437227 21
2.4539258 2.3838398 -0.53519762 17
2.3914964 2.3223822 -0.40403107 3
3.4083941 3.3087361 -0.41224667 55
3.1055188 3.013664 -0.22403434 12
3.1061835 3.0132568 -0.074870817 67
3.4253862 3.3217492 1.2673873 36
3.4276679 3.3228016 1.0924356 29
3.4359317 3.3296492 0.92173308 34
3.4291637 3.3219302 0.7492767 33
3.43576 3.3271585 0.58170736 36
3.4381142 3.3282752 0.41446859 30
3.42907 3.318361 0.24724625 38
3.4301856 3.3182817 0.081810854 38
3.1682882 3.0595806 -1.1691 4
nan nan nan 0
2.496341 2.4090049 -0.6662786 21
2.4693408 2.382117 -0.53676027 18
2.4067333 2.3209102 -0.40524802 3
3.430681 3.3071892 -0.41355398 57
3.1160195 3.0028055 -0.22403434 11
3.116683 3.0023956 -0.074870817 39
3.4473972 3.3198228 1.2712669 34
3.4532859 3.3243325 1.0969312 32
3.4616802 3.331249 0.92554587 34
3.4549749 3.3236353 0.75240195 33
3.4616616 3.3289051 0.58414125 36
3.4640746 3.3300617 0.41620824 27
3.4550335 3.3202105 0.2482895 39
3.4561691 3.3201416 0.08215642 38
3.165005 3.0351307 -1.1639271 4
3.097986 2.9698238 -0.98116899 3
2.5153663 2.410465 -0.66913819 21
2.4847734 2.3803155 -0.53832287 17
2.4184043 2.3159275 -0.40585652 3
3.4529982 3.305527 -0.41486132 59
3.1084447 2.974649 -0.22273029 7
nan nan nan 0
3.4729271 3.3211215 1.27644 35
3.4754343 3.3223577 1.1003029 33
3.4874814 3.3327096 0.9293586 35
3.4808397 3.3252003 0.7555272 35
3.4876173 3.3305111 0.58657521 39
3.4864862 3.3282678 0.41751295 27
3.4774396 3.3184719 0.24907193 39
3.4822063 3.3218596 0.082501978 39
3.1720824 3.0207334 -1.1626338 4
3.164794 3.0127394 -0.99915147 4
2.5344319 2.4118207 -0.67199773 19
2.5038013 2.3818393 -0.54066682 17
2.4300699 2.3108914 -0.40646499 3
3.4753463 3.3037491 -0.41616869 57
3.4771428 3.304302 -0.2485503 41
3.5000193 3.3248789 -0.083597019 64
3.498508 3.3222818 1.281613 38
3.5011444 3.3236232 1.1047986 30
3.5097744 3.3306515 0.93221813 32
3.506757 3.3266249 0.75865245 33
3.5136263 3.3319769 0.58900911 36
3.5125425 3.3297849 0.41925257 30
3.503499 3.3200512 0.25011516 39
3.5082982 3.323437 0.082847536 38
3.1755888 3.0030053 -1.1600473 4
3.1646698 2.9916334 -0.99577975 5
2.5535376 2.4130726 -0.67485732 18
2.5192804 2.3798676 -0.54222941 17
2.4597712 2.3228395 -0.41011587 3
3.5013456 3.3052747 -0.4179118 62
3.4886558 3.2921445 -0.2485503 21
3.5297861 3.3297935 -0.084033333 54
3.5241392 3.3233039 1.286786 33
3.5233598 3.3214078 1.1081703 29
3.5356679 3.3318448 0.93603092 33
3.5327265 3.3279092 0.76177764 33
3.5360749 3.3298988 0.59083462 37
3.5350254 3.3277464 0.42055735 28
3.5259759 3.3180671 0.25089759 37
3.5308013 3.3214462 0.083106697 38
3.1790104 2.9852893 -1.1574607 4
3.167989 2.9738996 -0.993532 4
2.5762618 2.4175794 -0.67867005 20
2.5383778 2.3811953 -0.54457337 17
2.478725 2.3244233 -0.41194132 4
3.5164955 3.2964389 -0.41834754 39
3.4855525 3.2662897 -0.24750707 19
3.5559819 3.3311231 -0.084382385 38
3.5462945 3.3208864 1.2906657 35
3.549159 3.3224068 1.1126659 29
3.5616119 3.3328977 0.93984365 37
3.5551414 3.3256788 0.76412159 35
3.5621762 3.331094 0.59326851 37
3.5611746 3.3289926 0.42229697 27
3.5521293 3.3193755 0.25194082 38
3.5569868 3.322752 0.083452255 38
3.1823471 2.9675865 -1.1548742 4
nan nan nan 0
2.5810943 2.4052253 -0.67771685 16
2.5611286 2.3857853 -0.54769862 17
2.519511 2.3461957 -0.41741762 14
3.4951684 3.2535999 -0.41442558 29
3.4823112 3.2404969 -0.24646384 19
3.5566068 3.3084753 -0.084120594 23
3.5720122 3.3216431 1.2958387 32
3.5750086 3.323266 1.1171615 29
3.587606 3.3338094 0.94365638 32
3.5812016 3.3266933 0.76724684 33
3.584692 3.3287702 0.59509397 39
3.583725 3.3267074 0.42360169 34
3.5783353 3.3205416 0.25298405 39
3.5795596 3.3205156 0.083711423 38
3.1891427 2.9531786 -1.153581 4
2.7846599 2.5777206 -0.86653072 32
2.5930769 2.3995347 -0.67867005 9
2.5875678 2.3935988 -0.55160517 17
2.5203979 2.3306477 -0.41620067 18
3.4955313 3.231236 -0.41311821 30
3.4826002 3.2181554 -0.24568142 20
3.5093782 3.2417648 -0.0827244 13
3.597779 3.3222606 1.3010117 33
3.5973272 3.3206806 1.1205331 27
3.610043 3.3312519 0.94651592 34
3.603682 3.3242178 0.76959074 34
3.610884 3.3296947 0.59752786 38
3.6099651 3.3276818 0.42534134 27
3.6009197 3.3181815 0.25376648 38
3.6058362 3.3215485 0.084056981 38
3.1852109 2.9289515 -1.1484081 4
2.8044014 2.5778761 -0.86990243 7
2.5978229 2.3871474 -0.67771685 5
2.6140921 2.4012563 -0.55551171 17
2.5321734 2.3251925 -0.41680917 24
3.4847727 3.1988051 -0.41050357 29
3.4790962 3.1924756 -0.24463819 21
3.4764638 3.1889424 -0.081677258 16
3.6235931 3.3227391 1.3061846 31
3.6232631 3.3212724 1.1250288 29
3.6361244 3.3318942 0.95032871 34
3.6298306 3.3249619 0.77271599 33
3.6334648 3.3271244 0.59935331 35
3.6362555 3.3285131 0.42708096 29
3.6272154 3.3190751 0.25480971 38
3.6284754 3.3190644 0.084316157 39
3.1918488 2.9145584 -1.1471148 4
2.9321284 2.6764627 -0.90699124 2
2.6097655 2.3813732 -0.67867005 2
2.637053 2.4054294 -0.5586369 18
2.5402746 2.3163395 -0.41680917 17
3.4811928 3.1731997 -0.40876046 30
3.4791465 3.1702225 -0.24385574 21
3.4653995 3.1565893 -0.081153691 23
3.6494541 3.3230772 1.3113577 33
3.6456432 3.3184433 1.1284006 32
3.6586242 3.3290915 0.9531883 36
3.6560276 3.325563 0.77584118 47
3.6560721 3.3244374 0.60117877 40
3.6589096 3.3258512 0.42838567 39
3.6535606 3.3198247 0.25585294 37
3.6548407 3.3198235 0.084661715 45
3.1089754 2.8190467 -1.1134901 3
2.9992101 2.718564 -0.92497373 2
2.6471601 2.3986149 -0.68629557 2
2.6673951 2.4161022 -0.56332481 13
2.5520232 2.3107891 -0.41741762 16
3.4774771 3.1476581 -0.40701732 31
3.4753814 3.1446581 -0.24281251 20
3.4652741 3.1344128 -0.0808919 26
3.6753616 3.3232753 1.3165307 60
3.6716616 3.3187652 1.1328962 36
3.6847899 3.329463 0.95700109 34
3.6786091 3.3227119 0.77818519 30
3.6787045 3.3216329 0.60300422 37
3.685287 3.3264091 0.43012533 26
3.6799555 3.3204315 0.25689617 44
3.6775439 3.317091 0.084920876 43
3.0793147 2.7726276 -1.0992644 2
3.091969 2.7830443 -0.95082361 2
nan nan nan 0
2.6758127 2.4067769 -0.56332481 3
2.5711453 2.3118217 -0.41924307 16
3.4773293 3.1255109 -0.40570998 31
3.4751947 3.1224959 -0.2420301 20
3.4613168 3.1089351 -0.080542848 30
3.6977215 3.320106 1.3204106 30
3.697727 3.3189459 1.1373918 24
3.7110026 3.3296921 0.96081382 27
3.7048907 3.3230412 0.78131044 29
3.7087522 3.3253367 0.60604662 35
3.7117126 3.3268228 0.43186495 28
3.7026803 3.3175616 0.2576786 35
3.7039955 3.3175752 0.085266434 38
3.0601702 2.7361078 -1.0889184 2
3.0653391 2.7397668 -0.93958449 2
3.0737793 2.7463455 -0.79305267 2
2.7136638 2.4237401 -0.56957531 6
2.5977094 2.3193591 -0.4222855 16
3.4733541 3.1000872 -0.40396684 31
3.4711697 3.0970495 -0.24098687 19
3.4609559 3.0868514 -0.080281064 30
3.7237082 3.3200355 1.3255836 30
3.7274752 3.3222263 1.1430113 27
3.7372618 3.3297787 0.96462655 31
3.7312193 3.3232272 0.78443569 35
3.7388704 3.3288717 0.60908902 37
3.7419069 3.3304048 0.4340395 28
3.7291598 3.317893 0.25872183 36
3.7342317 3.321238 0.085698389 37
nan nan nan 0
3.1149671 2.7646253 -0.95194751 2
3.0980334 2.7486291 -0.7968654 2
2.7627504 2.4502988 -0.5781697 25
2.624357 2.3267388 -0.42532787 17
3.4729712 3.0780325 -0.40265954 31
3.4707475 3.0749803 -0.24020444 21
3.4604824 3.0648077 -0.08001928 32
3.7497394 3.3198233 1.3307565 39
3.7572906 3.3253396 1.1486307 34
3.7635663 3.3297222 0.96843934 44
3.7575939 3.3232694 0.78756088 36
3.7690578 3.3322358 0.61213136 39
3.7684386 3.3305171 0.43577915 36
3.7594287 3.3213856 0.26002586 53
3.7607901 3.32142 0.086043946 50
2.807477 2.4751241 -0.99192441 31
3.1099775 2.7408495 -0.94745183 3
3.107609 2.7377985 -0.7968654 2
2.8676476 2.5255041 -0.5984838 2
nan nan nan 0
3.4687378 3.0527279 -0.40091643 31
3.4664645 3.049654 -0.23916121 20
3.4598968 3.0428052 -0.079757489 32
3.7721872 3.3162813 1.3346363 39
3.7835143 3.325069 1.1531265 27
3.789916 3.3295226 0.97225207 33
3.7840145 3.323168 0.79068613 32
3.7955844 3.3321555 0.61456531 36
3.7987604 3.33377 0.43795371 28
3.7860138 3.3214142 0.26106912 40
3.7911544 3.324753 0.086475894 38
2.8124659 2.4621277 -0.99063122 18
3.1231925 2.7331855 -0.94857574 3
3.0838985 2.6978483 -0.78828669 2
3.0139956 2.6357675 -0.62739223 3
nan nan nan 0
3.4681211 3.0307686 -0.39960909 31
3.4658072 3.0276797 -0.23837876 21
3.4592009 3.0208442 -0.079495706 33
3.7982938 3.3157985 1.3398093 30
3.8134518 3.3278582 1.158746 28
3.8163102 3.3291793 0.9760648 32
3.8104801 3.3229227 0.79381138 31
3.8258979 3.3351924 0.61760771 38
3.8253953 3.3335793 0.43969333 30
3.8126445 3.3212976 0.26211235 35
3.8178177 3.3246317 0.086821452 39
2.8137531 2.4459581 -0.98804474 2
nan nan nan 0
3.0895917 2.6838486 -0.78733355 2
3.0492799 2.647897 -0.63286138 3
nan nan nan 0
3.4636307 3.0055857 -0.39786598 31
3.4612675 3.0024757 -0.23733553 20
3.4583938 2.9989254 -0.079233922 32
3.8244436 3.3151741 1.3449823 28
3.8397732 3.3272891 1.1632416 30
3.8464575 3.3319058 0.98083079 31
3.840723 3.3257656 0.79771793 32
3.8525257 3.3348093 0.62004167 37
3.8558414 3.3365026 0.44186789 28
3.8430965 3.3243012 0.26341638 36
3.8483069 3.3276343 0.087253392 39
nan nan nan 0
nan nan nan 0
3.080358 2.6570179 -0.78256762 2
3.0585043 2.6372366 -0.63286138 3
nan nan nan 0
3.4627807 2.9837229 -0.39655861 31
3.4603775 2.9805996 -0.23655312 21
3.4574757 2.9770494 -0.078972138 32
3.8542953 3.3175583 1.3514485 28
3.8661368 3.3265765 1.1677371 28
3.8729494 3.3312621 0.98464352 36
3.8672872 3.3252175 0.80084318 37
3.8754337 3.3310456 0.62186706 37
3.8825765 3.3360074 0.44360754 31
3.869828 3.3238797 0.26445961 38
3.8750708 3.3272076 0.08759895 39
3.153471 2.7028515 -1.1018509 10
3.1294441 2.6813107 -0.94183236 2
3.0821581 2.6398633 -0.78066117 2
3.0676913 2.6265442 -0.63286138 3
3.4412658 2.9453568 -0.55067492 35
3.4618211 2.9619031 -0.39525127 31
3.4555821 2.9555206 -0.23550989 21
3.4526474 2.9519675 -0.078623094 33
3.8805385 3.3166363 1.3566216 31
3.8925414 3.3257198 1.1722327 31
3.9032156 3.3336608 0.98940951 30
3.8938944 3.3245246 0.80396843 32
3.9021373 3.330385 0.62430102 35
3.9093547 3.335366 0.44534716 29
3.8966036 3.3233118 0.26550284 39
3.9018786 3.3266346 0.087944508 40
3.1187491 2.6542635 -1.0863318 27
3.1387844 2.6703706 -0.94183236 3
3.0689206 2.6100097 -0.7749421 2
3.0730786 2.6126213 -0.63208014 3
3.4515262 2.9333265 -0.55067492 33
3.4607506 2.9401259 -0.39394397 31
3.4544599 2.9337435 -0.23472747 21
3.4514973 2.930191 -0.078361295 33
3.9141872 3.3218219 1.3643812 27
3.9189875 3.3247192 1.1767284 28
3.9298019 3.3327143 0.99322224 28
3.9205437 3.3236866 0.80709368 31
3.9288833 3.3295784 0.62673497 35
3.9361761 3.3345785 0.44708681 29
3.9272327 3.3258245 0.26680687 59
3.9325449 3.3291452 0.088376455 45
3.091105 2.6121862 -1.0733994 25
3.1480868 2.6593978 -0.94183236 5
3.0967627 2.6151147 -0.77970797 2
3.0670848 2.5891361 -0.62895489 3
3.4617445 2.9212606 -0.55067492 29
3.4595709 2.9183927 -0.39263663 31
3.4532282 2.9120109 -0.23394506 21
3.4464152 2.9052365 -0.07801225 33
3.9442253 3.3236997 1.3708473 31
3.9491999 3.3267136 1.182348 28
3.9601836 3.334784 0.9979881 30
3.9472342 3.3227026 0.81021893 31
3.9594679 3.33182 0.62977731 35
3.9630389 3.3336437 0.44882643 27
3.9273531 3.3024549 0.26602447 61
3.9173539 3.2928801 0.087771729 40
3.0891047 2.5920668 -1.0695195 17
3.1610827 2.6515234 -0.94295621 9
3.1096332 2.6074429 -0.78066117 2
3.064749 2.5688965 -0.62661093 4
3.4605083 2.8995967 -0.5488494 30
3.4544632 2.8935053 -0.39089352 32
3.4518867 2.8903222 -0.23316261 20
3.445035 2.8835626 -0.077750467 32
3.9743242 3.3254087 1.3773136 35
3.9757371 3.3254113 1.1868436 30
3.9906271 3.3366821 1.0027541 30
3.9739656 3.3215725 0.81334412 35
3.9863076 3.3307071 0.63221127 36
3.9899435 3.3325622 0.45056608 30
3.9235256 3.2759252 0.26498124 57
3.9173107 3.2695758 0.087512568 40
3.0907128 2.5750847 -1.0669332 20
3.144114 2.6186476 -0.93508887 17
3.1224883 2.5997131 -0.78161442 2
3.0661058 2.5518646 -0.62504834 3
3.4591632 2.8779771 -0.54702401 30
3.4530532 2.8718741 -0.38958615 31
3.4504364 2.868679 -0.2323802 22
3.4435453 2.8619335 -0.077488683 31
4.0044827 3.3269479 1.3837799 31
4.0060606 3.3270767 1.1924632 25
4.0173559 3.3352733 1.0065668 33
4.0045376 3.3234506 0.81725073 30
4.0170078 3.3326159 0.63525367 34
4.0168881 3.3313332 0.4523057 27
3.9234047 3.2526491 0.26419881 57
3.9171517 3.2463114 0.087253392 40
3.0959611 2.5612018 -1.0656399 16
3.1231992 2.5828173 -0.92609763 22
3.1391098 2.5950522 -0.78352082 2
3.0673811 2.5348544 -0.62348574 3
3.4538836 2.8532422 -0.54459006 30
3.4515352 2.8502884 -0.38827884 31
3.4488771 2.8470812 -0.23159777 20
3.4419465 2.8403499 -0.077226892 32
4.0347004 3.3283165 1.3902462 33
4.0364447 3.3285713 1.1980827 28
4.0479107 3.3368402 1.0113328 30
4.0313592 3.3220143 0.82037592 32
4.0439382 3.3311951 0.63768756 35
4.047718 3.3331237 0.45448026 29
3.9231691 3.2294135 0.26341638 55
3.9168785 3.2230887 0.086994223 40
3.1048825 2.5503793 -1.0656399 19
3.1472571 2.5842667 -0.93059325 5
3.1633246 2.5965357 -0.78733355 5
3.0685751 2.5178661 -0.62192309 3
3.4523108 2.8317266 -0.54276466 30
3.4499085 2.8287485 -0.3869715 32
3.4472089 2.8255289 -0.23081534 20
3.4402399 2.8188128 -0.076965109 32
4.0649762 3.3295147 1.3967124 34
4.063117 3.326807 1.2025783 25
4.0747266 3.3351254 1.0151455 30
4.0620418 3.323559 0.82428253 35
4.074749 3.3327689 0.64072996 37
4.0747533 3.3315854 0.45621991 30
3.9228199 3.2062199 0.26263395 55
3.9203627 3.2030706 0.086821452 40
3.113766 2.5395257 -1.0656399 17
3.1675873 2.5825007 -0.93396497 6
3.1799786 2.5916793 -0.78923988 10
3.0696878 2.5009012 -0.62036049 4
3.4506302 2.8102562 -0.54093915 30
3.448173 2.8072541 -0.38566414 31
3.4454322 2.8040233 -0.23003291 21
3.4384239 2.797322 -0.076703325 33
4.0953093 3.3305416 1.4031786 33
4.0936074 3.3279707 1.2081978 28
4.1053886 3.3363593 1.0199115 29
4.0927835 3.3249292 0.82818902 29
4.1017675 3.3310394 0.64316392 34
4.1056938 3.3330386 0.45839447 31
3.9223564 3.1830683 0.26185152 55
3.9198723 3.1799178 0.086562276 40
3.1263652 2.5316806 -1.0669332 21
3.1690092 2.5652971 -0.93171722 3
3.192821 2.5836508 -0.79019308 12
3.0707195 2.4839587 -0.61879784 4
3.4488416 2.7888322 -0.53911376 29
3.4463301 2.7858069 -0.38435683 32
3.4435482 2.7825649 -0.22925049 21
3.4442785 2.7821615 -0.076616056 38
4.1219406 3.3283634 1.4083517 30
4.1241546 3.3289621 1.2138174 24
4.1361094 3.3374195 1.0246774 27
4.1235843 3.3261254 0.83209556 28
4.1326876 3.3322775 0.64620632 33
4.1366935 3.3343163 0.46056902 29
3.9256668 3.1630914 0.26132989 53
3.9231617 3.1599438 0.086389497 40
3.127655 2.514699 -1.0643466 17
3.1665518 2.5450633 -0.9283455 3
3.1673837 2.5448222 -0.78161442 7
3.075521 2.4701324 -0.61801654 4
3.4430757 2.7643485 -0.5366798 29
3.44438 2.7644072 -0.38304949 31
3.4376614 2.7580285 -0.22820726 35
3.4578691 2.7732494 -0.076703325 33
4.1523757 3.3290606 1.4148179 32
4.154758 3.3297796 1.2194368 30
4.1668873 3.338306 1.0294434 29
4.1544437 3.3271468 0.83600211 28
4.159791 3.3302376 0.64864022 35
4.1677518 3.3354175 0.46274352 24
3.9249873 3.1400115 0.26054749 51
3.9224553 3.1368632 0.086130328 40
3.1137664 2.485687 -1.0565871 5
3.0916371 2.4671383 -0.90361959 2
3.0918336 2.4664118 -0.76064426 3
3.0764022 2.4532235 -0.61645389 5
3.4410622 2.7430327 -0.53485441 29
3.4384265 2.7399507 -0.38130638 33
3.4550791 2.7522342 -0.22872886 21
3.4792609 2.7705047 -0.076965109 32
4.1828651 3.3295858 1.4212842 35
4.1854177 3.3304245 1.2250564 25
4.1977205 3.3390176 1.0342093 30
4.18536 3.3279932 0.83990872 30
4.1908154 3.3311377 0.65168267 36
4.1988688 3.3363428 0.46491808 22
3.9281042 3.1200805 0.26002586 51
3.9255507 3.1169348 0.08595755 40
nan nan nan 0
3.1193242 2.4714596 -0.90923911 2
3.0850332 2.4434144 -0.75683153 3
3.077203 2.4363387 -0.61489129 6
3.438942 2.7217648 -0.53302896 30
3.4479702 2.7279315 -0.38130638 38
3.4803305 2.7525468 -0.22977211 20
3.5006754 2.7676442 -0.077226892 31
4.2134085 3.3299384 1.4277505 31
4.2161326 3.3308957 1.2306759 25
4.2286105 3.339555 1.0389752 23
4.2163324 3.3286641 0.84381527 29
4.2218971 3.3318613 0.65472507 34
4.230042 3.3370912 0.46709263 20
3.9311302 3.1001658 0.25950426 51
3.9246292 3.0939283 0.085698389 39
3.1538169 2.4818091 -1.0643466 2
3.1164441 2.4515193 -0.90586734 2
3.0896852 2.4295967 -0.75587833 3
3.0934539 2.4316866 -0.61645389 17
3.4445193 2.7066777 -0.53242046 36
3.4574711 2.7158794 -0.38130638 30
3.5016992 2.7496326 -0.23055454 19
3.5260448 2.7677548 -0.077575937 31
4.2440057 3.3301182 1.4342167 28
4.2507348 3.3341999 1.2374194 26
4.2595544 3.3399169 1.0437412 29
4.2512465 3.3322055 0.84850311 31
4.2530336 3.3324077 0.65776742 36
4.2651935 3.3407342 0.46970209 19
3.9497907 3.0925808 0.26002586 39
3.9275315 3.0740471 0.085525602 38
nan nan nan 0
nan nan nan 0
3.1020164 2.4218175 -0.75683153 2
nan nan nan 0
3.4578593 2.6976905 -0.53302896 29
3.4826412 2.7160466 -0.38304949 30
3.5270276 2.7496727 -0.23159777 18
3.5475147 2.7646492 -0.077837728 32
4.2784643 3.3330929 1.4419762 37
4.2815671 3.3343091 1.2430388 34
4.2905521 3.3401036 1.0485071 35
4.2862377 3.3355439 0.85319102 39
4.2920604 3.3388724 0.66202682 39
4.2925572 3.3380563 0.47144175 32
3.9763308 3.0910335 0.26106912 38
3.9263952 3.0511162 0.085266434 39
nan nan nan 0
nan nan nan 0
3.1065717 2.4079676 -0.75587833 2
3.0986433 2.4009564 -0.61410999 17
nan nan nan 0
3.503916 2.7130218 -0.38435683 30
3.5484498 2.7465129 -0.2323802 19
3.5729587 2.7644858 -0.07818678 35
4.3129964 3.3358676 1.4497358 58
4.3085971 3.3312638 1.2475344 58
4.3099518 3.3311095 1.0504135 74
4.3017626 3.3235805 0.85397226 72
4.3154726 3.3329706 0.66385227 74
4.3002405 3.320008 0.47100681 79
4.0068603 3.0923874 0.26237315 39
3.9291048 3.0312841 0.085093655 39
nan nan nan 0
nan nan nan 0
3.0060425 2.3132932 -0.72918904 6
nan nan nan 0
3.4884107 2.6825602 -0.53485441 13
3.5291605 2.7129166 -0.38609993 30
3.5738523 2.7462797 -0.23342343 18
3.5944805 2.7611334 -0.078448564 35
4.3169522 3.3149087 1.4471493 43
4.3086052 3.3073039 1.2441628 37
4.313766 3.3100688 1.0485071 47
4.3015823 3.2995276 0.8516283 44
4.311327 3.3058069 0.66141832 42
4.3118029 3.3049772 0.47100681 37
4.0374479 3.0935667 0.26367718 38
3.9317253 3.0114713 0.084920876 39
nan nan nan 0
nan nan nan 0
2.9126923 2.2253108 -0.70440614 31
2.9033875 2.2173996 -0.5719192 31
2.8666086 2.1885185 -0.4374975 4
3.550488 2.7096467 -0.38740724 30
3.5953262 2.7428734 -0.23420584 17
3.6160226 2.7576644 -0.078710347 32
4.3169746 3.2910352 1.4432695 38
4.3084984 3.2833846 1.2407911 36
4.31358 3.2860675 1.0456475 46
4.3052154 3.2785082 0.85006577 38
4.3149424 3.2847252 0.66020137 42
4.3114219 3.2808571 0.46970209 30
4.0641184 3.091547 0.26472041 38
3.9302747 2.9886506 0.084661715 40
2.9311986 2.224901 -0.9751122 7
2.9258802 2.2200589 -0.83843309 10
2.9008889 2.200299 -0.69964021 8
2.9189808 2.2132187 -0.5734818 12
2.8702755 2.1755011 -0.43688902 4
3.5758052 2.7092688 -0.38915038 30
3.6208 2.7423654 -0.23524907 18
3.6415689 2.7570958 -0.079059392 32
4.3168821 3.2672019 1.4393898 37
4.3043919 3.256567 1.2362955 34
4.3132801 3.2621083 1.042788 38
4.3008757 3.2515471 0.84694052 36
4.3105445 3.2576745 0.65776742 40
4.3148985 3.2597821 0.46883225 38
4.0948081 3.0923874 0.26602447 39
3.9327028 2.9688885 0.084488928 39
2.9350898 2.2117488 -0.9738189 17
2.9258285 2.2039695 -0.83618528 13
2.9124725 2.1931121 -0.70059341 22
2.9109056 2.1911361 -0.57035661 23
2.885783 2.1714363 -0.43810597 6
3.6011634 2.7087476 -0.39089352 30
3.6423237 2.7387123 -0.23603152 18
3.6631601 2.7533786 -0.079321183 32
4.3166766 3.2434089 1.4355099 38
4.3040462 3.232744 1.2329236 33
4.3128657 3.2381914 1.0399284 39
4.3003497 3.2276204 0.84459651 36
4.3099804 3.2336731 0.65594202 39
4.3142967 3.2357347 0.46752754 39
4.1255527 3.0930512 0.2673285 38
3.9310412 2.9461486 0.08422976 39
2.9234552 2.1870241 -0.96735269 13
2.9022901 2.1704004 -0.82719404 35
2.8925917 2.1623607 -0.69392109 13
2.8987563 2.1661806 -0.56645006 10
2.8893692 2.15838 -0.4374975 6
3.6225696 2.705101 -0.39220086 29
3.6638653 2.7349422 -0.23681393 19
3.6887755 2.7525344 -0.079670236 30
4.3163576 3.2196579 1.4316303 36
4.303587 3.2089636 1.229552 33
4.3123369 3.2143168 1.0370688 37
4.2997098 3.2037375 0.84225261 37
4.3093019 3.2097151 0.65411657 38
4.3135791 3.2117312 0.46622279 37
4.1563525 3.0935378 0.26863256 38
3.9332793 2.9264402 0.084056981 43
2.9194393 2.1681671 -0.9634729 65
2.9098485 2.1602564 -0.82719404 63
2.9119465 2.1610258 -0.69678068 60
2.9142327 2.1619337 -0.56801265 40
2.8968856 2.1482811 -0.4374975 5
3.6479955 2.7043045 -0.39394397 30
3.6894367 2.7340276 -0.23785716 18
3.806823 2.8199871 -0.082026303 34
4.3159256 3.1959488 1.4277505 39
4.3030143 3.1852255 1.2261803 34
4.3116932 3.1904852 1.0342093 41
4.2989559 3.1798987 0.83990872 38
4.3085079 3.1858013 0.65229112 42
4.3127475 3.1877723 0.46491808 37
4.2032681 3.1057158 0.27097982 38
3.9354281 2.9067521 0.083884202 40
2.9269898 2.1579628 -0.9634729 57
2.9095278 2.1443052 -0.82494622 54
2.9155207 2.1479363 -0.69582742 48
2.9177849 2.1488194 -0.56723136 47
2.904367 2.1381559 -0.4374975 7
3.6654363 2.6974587 -0.3948155 30
3.7311344 2.7448032 -0.23994364 15
3.9374678 2.8955331 -0.084644169 48
4.3153806 3.172282 1.4238708 39
4.3062544 3.1644158 1.2239324 33
4.3109369 3.166698 1.0313498 41
4.2980871 3.1561038 0.83756471 35
4.3116007 3.1648693 0.65107417 38
4.3158169 3.1668048 0.46404827 34
4.2382412 3.1087444 0.27254468 37
3.9374874 2.8870854 0.083711423 40
2.9267094 2.1420276 -0.96088642 58
2.913063 2.1312592 -0.82382232 55
2.9230003 2.1377463 -0.69582742 42
2.9252679 2.1386213 -0.56723136 47
2.9118128 2.1280048 -0.4374975 8
3.6909182 2.6964004 -0.39655861 29
3.9382803 2.8760571 -0.25272325 39
3.9435136 2.8788235 -0.0845569 50
4.314723 3.1486578 1.4199909 36
4.3054662 3.1407511 1.2205608 34
4.3140335 3.1458471 1.0294434 40
4.3010964 3.1352634 0.83600211 36
4.3105893 3.1410315 0.64924872 38
4.3147664 3.1429222 0.46274352 32
4.3136506 3.1409574 0.2767176 48
3.9394577 2.8674393 0.083538651 40
2.9302611 2.1289594 -0.95959312 60
2.9165425 2.1182146 -0.82269841 56
2.9264727 2.1246467 -0.69487429 42
2.9287186 2.1254966 -0.56645006 45
2.9192233 2.1178277 -0.4374975 7
3.8091788 2.7624547 -0.40832466 34
3.9361675 2.8535001 -0.25194082 37
3.9494901 2.8621068 -0.084469639 38
4.3139534 3.125077 1.4161112 39
4.3085108 3.119988 1.218313 33
4.3130598 3.1221347 1.0265838 43
4.3000116 3.1115456 0.83365822 37
4.309464 3.1172395 0.64742327 38
4.313602 3.1190863 0.4614388 34
4.3245878 3.125881 0.2767176 48
3.9494429 2.8536706 0.083538651 36
2.9298403 2.1130674 -0.95700663 56
2.9160147 2.1023223 -0.8204506 55
2.9298894 2.1115487 -0.69392109 42
2.9281061 2.1094868 -0.56488746 47
2.9265981 2.1076248 -0.4374975 7
3.9400711 2.8364451 -0.42139801 55
3.9379985 2.8339097 -0.25141919 38
3.9756899 2.8599806 -0.084818684 35
4.3130722 3.1015403 1.4122314 39
4.3075075 3.0963984 1.2149411 34
4.3159599 3.1013319 1.0246774 39
4.302824 3.0907543 0.83209556 38
4.3122559 3.0963888 0.64620632 40
4.3123236 3.0952964 0.46013409 34
4.3273597 3.1049447 0.276196 49
3.9796913 2.8544357 0.083970591 34
2.9293439 2.0972044 -0.95442015 56
2.9154115 2.0864601 -0.81820279 53
2.9292583 2.0955968 -0.69201469 42
2.9314346 2.0963805 -0.56410611 47
2.9298999 2.0945101 -0.43688902 6
3.9418428 2.8168824 -0.42052644 51
3.9356778 2.8114393 -0.25063676 38
3.9978545 2.8548014 -0.085080475 35
4.31601 3.0808535 1.409645 39
4.3063922 3.072854 1.2115695 35
4.3147712 3.0776963 1.0218178 37
4.3015232 3.0671146 0.82975167 36
4.3109145 3.0726759 0.64438087 42
4.3149886 3.0744438 0.45926425 36
4.3259702 3.08113 0.27541354 44
4.0140657 2.8579235 0.084488928 34
2.9287732 2.0813706 -0.95183361 59
2.9147332 2.0706272 -0.81595498 54
2.9285517 2.0796752 -0.6901083 44
2.9306803 2.0804176 -0.56254351 45
2.933146 2.081398 -0.43628055 5
3.9435265 2.7973421 -0.41965491 53
3.9373212 2.7919075 -0.25011516 39
4.0241098 2.8523927 -0.085429527 35
4.3149157 3.0573924 1.4057652 38
4.3051648 3.049355 1.2081978 34
4.3174767 3.0569439 1.0199115 40
4.3001103 3.0435214 0.82740778 36
4.3094597 3.0490096 0.64255542 39
4.3134937 3.050734 0.45795953 34
4.3244672 3.057363 0.27463114 46
4.0444312 2.8583214 0.084920876 34
2.9320738 2.0683506 -0.95054042 58
2.9179616 2.0576329 -0.81483108 57
2.9277697 2.0637839 -0.68820196 44
2.9298503 2.0644855 -0.56098086 47
2.9403934 2.0711467 -0.43628055 6
3.9410489 2.7749567 -0.41834754 53
3.934793 2.7695248 -0.24933273 30
4.0463076 2.8469586 -0.08569131 37
4.3176599 3.0367544 1.4031786 39
4.3078117 3.0287039 1.20595 33
4.3160744 3.0333877 1.0170519 52
4.2985849 3.0199752 0.82506377 37
4.3078923 3.0253913 0.64072996 39
4.3118863 3.0270729 0.45665482 34
4.3269391 3.0365131 0.27410954 46
4.0748467 2.8585413 0.085352831 38
2.9313631 2.0525627 -0.94795388 57
2.9171433 2.0418472 -0.81258327 52
2.9269125 2.047924 -0.68629557 44
2.932992 2.0514154 -0.56019956 42
2.9476054 2.0608699 -0.43628055 6
3.9425461 2.7554762 -0.417476 51
3.9362504 2.7500539 -0.24881111 10
4.0685158 2.8414042 -0.085953094 33
4.3163533 3.01337 1.3992989 39
4.3063712 3.0052838 1.2025783 32
4.3185849 3.012687 1.0151455 43
4.3009987 2.9993026 0.82350117 36
4.3102841 3.0046599 0.63951308 40
4.3101659 3.0034597 0.45535007 34
4.3252201 3.0128286 0.27332708 44
4.1094155 2.8614402 0.08587116 33
2.9305782 2.0368049 -0.9453674 59
2.9162509 2.0260923 -0.81033546 52
2.9259806 2.0320952 -0.68438917 52
2.9320214 2.035532 -0.5586369 47
2.9507039 2.047739 -0.43567204 5
3.9439549 2.7360189 -0.41660443 51
3.9335165 2.7277608 -0.2480287 7
4.086627 2.8328817 -0.086127624 33
4.3189058 2.9927833 1.3967124 37
4.3048205 2.9819109 1.1992066 37
4.3169689 2.9892113 1.0122859 37
4.2992601 2.9758389 0.82115728 37
4.3085027 2.9811242 0.63768756 39
4.3083339 2.9798956 0.45404536 33
4.3233895 2.9891937 0.27254468 49
4.1440549 2.8641326 0.086389497 33
2.9297187 2.0210774 -0.94278091 54
2.9192944 2.0131345 -0.80921155 55
2.9290147 2.0190835 -0.68343604 46
2.9309754 2.0196805 -0.55707431 43
2.9782691 2.0515029 -0.43871447 4
3.9452765 2.7165856 -0.41573289 55
3.9347882 2.7083514 -0.24750707 36
4.1006093 2.8214331 -0.086214885 35
4.3173876 2.9694781 1.3928326 38
4.3031588 2.958585 1.1958348 34
4.3152418 2.9657838 1.0094265 40
4.3014803 2.9552205 0.81959462 36
4.3107009 2.9604478 0.63647062 39
4.3063903 2.9563816 0.45274064 29
4.3214464 2.9656079 0.27176225 51
4.187007 2.8722734 0.087080613 33
2.9287853 2.0053811 -0.94019437 57
2.9182627 1.9974282 -0.80696374 55
2.927943 2.0033038 -0.68152958 42
2.9298549 2.0038612 -0.55551171 49
2.9977024 2.0494971 -0.4405399 13
3.9465106 2.6971762 -0.41486132 53
3.9359725 2.6889665 -0.24698544 39
4.1063046 2.8042829 -0.086127624 37
4.3157601 2.9462202 1.3889529 35
4.3054113 2.9380541 1.1935871 34
4.3174586 2.9451706 1.00752 39
4.2995291 2.9318407 0.81725073 38
4.3128066 2.9397919 0.63525367 40
4.3043351 2.9329169 0.45143592 36
4.3235183 2.9448831 0.27124062 40
4.2176695 2.8717089 0.087512568 32
2.927778 1.9897159 -0.93760788 56
2.9211874 1.9844917 -0.80583984 58
2.9308577 1.9903136 -0.68057644 44
2.9327459 1.9908479 -0.55473042 45
3.0212648 2.0501676 -0.44297382 9
3.9476576 2.6777918 -0.41398978 57
3.9412019 2.6724088 -0.24672465 40
4.1243448 2.7955418 -0.086302139 48
4.314023 2.9230096 1.3850732 39
4.3035398 2.9148109 1.1902153 35
4.3155198 2.9218268 1.0046605 39
4.3015575 2.9112785 0.81568807 38
4.3148212 2.9191575 0.63403672 40
4.306294 2.912293 0.45056608 33
4.3213615 2.9213841 0.27045819 42
4.2815151 2.893358 0.088635631 39
2.9307015 1.9767832 -0.93631458 57
2.9200177 1.9688354 -0.80359203 54
2.929647 1.9745842 -0.67867005 44
2.9314859 1.9750798 -0.55316776 43
3.0366354 2.0451536 -0.44419077 9
3.9445848 2.6556506 -0.41268241 51
3.9422209 2.6530595 -0.24620302 44
4.121634 2.7727566 -0.086040355 98
4.3161836 2.9025424 1.3824866 38
4.3056016 2.8943346 1.1879675 36
4.317544 2.9012692 1.0027541 41
4.2993946 2.8879843 0.81334412 38
4.3167443 2.898545 0.63281971 39
4.3040266 2.888916 0.44926137 33
4.3232403 2.9007175 0.26993656 46
4.2915888 2.8783948 0.088635631 43
2.9295571 1.9611675 -0.9337281 59
2.9228232 1.9559209 -0.80246812 54
2.9283626 1.9588879 -0.67676371 42
2.9301519 1.9593449 -0.55160517 45
3.031378 2.0262675 -0.44236535 11
3.9455476 2.6363306 -0.41181087 53
3.9431541 2.6337359 -0.24568142 46
nan nan nan 0
4.3142376 2.8794148 1.3786069 39
4.3035192 2.8711762 1.1845958 34
4.3153949 2.8780107 0.9998945 47
4.3012309 2.8674803 0.81178147 38
4.3185768 2.8779547 0.63160282 40
4.3016481 2.8655896 0.44795665 31
4.3208709 2.8773065 0.26915416 53
4.2974486 2.8606269 0.088549241 50
2.928339 1.9455839 -0.93114161 58
2.9215162 1.9403156 -0.80022031 55
2.9310932 1.9459391 -0.67581046 42
2.9328585 1.9463737 -0.55082381 45
3.0301611 2.0101864 -0.4411484 7
3.9464235 2.6170363 -0.41093931 53
nan nan nan 0
nan nan nan 0
4.3162088 2.8590035 1.3760203 38
4.3053904 2.8507569 1.182348 34
4.3172293 2.8575115 0.9979881 35
4.2988586 2.8442733 0.80943757 37
4.3203168 2.8573873 0.63038582 40
4.3033142 2.8450623 0.44708681 32
4.3225574 2.8567007 0.26863256 46
4.299561 2.8393466 0.088376455 48
2.9273851 1.9295218 -0.92855507 56
2.9242032 1.9274246 -0.79909641 57
2.9296708 1.9302951 -0.67390412 48
2.931386 1.9306912 -0.54926121 45
3.0205793 1.988681 -0.43871447 4
3.9596956 2.6059833 -0.41137511 44
nan nan nan 0
3.24822 2.136117 -0.067191757 34
4.3180909 2.8386137 1.3734338 38
4.3031006 2.8276842 1.1789763 35
4.3148704 2.8343399 0.99512857 39
4.3005042 2.8238289 0.80787498 38
4.3178182 2.8341193 0.62856036 40
4.3007259 2.8218265 0.4457821 33
4.324152 2.8361175 0.26811093 44
4.3047724 2.8223324 0.088290066 50
2.9256847 1.9145142 -0.92596859 57
2.9227588 1.9118714 -0.7968486 57
2.9281747 1.9146845 -0.67199773 44
2.9298398 1.9150434 -0.54769862 45
3.0732033 2.0079849 -0.44540775 8
3.9812789 2.6003168 -0.41268241 38
nan nan nan 0
3.2556565 2.1247656 -0.067191757 35
4.3158379 2.8156064 1.3695542 36
4.3047833 2.8073235 1.1767284 35
4.316514 2.8139002 0.99322224 41
4.3020597 2.8034077 0.80631232 38
4.3193679 2.8136125 0.62734342 46
4.3022008 2.8013606 0.44491225 32
4.3214712 2.8128343 0.2673285 39
4.3062177 2.801836 0.088117287 55
2.9282987 1.9016595 -0.92467535 58
2.9212418 1.8963518 -0.79460078 52
2.930723 1.9017798 -0.67104459 44
2.9323635 1.9021169 -0.54691732 45
3.1051784 2.0134456 -0.44905862 9
4.0154099 2.6026585 -0.41529712 37
3.2252541 2.0897059 -0.19873592 10
3.2588573 2.1106706 -0.067104504 30
4.3175306 2.7952745 1.3669676 38
4.306376 2.7869856 1.1744807 35
4.318068 2.7934835 0.99131578 43
4.2993784 2.780328 0.80396843 38
4.3166595 2.7904353 0.62551796 46
4.3035865 2.7809196 0.44404244 38
4.3228745 2.7923143 0.26680687 42
4.3075714 2.7813637 0.087944508 53
2.9267995 1.8861936 -0.9220888 60
2.9237478 1.8835047 -0.79347688 54
2.9290903 1.8862232 -0.66913819 42
2.9306798 1.8865232 -0.54535466 43
3.1163611 2.0052798 -0.4496671 10
4.0454168 2.6020997 -0.417476 37
3.2325289 2.0784349 -0.19873592 52
3.2704105 2.1019855 -0.067191757 11
4.3191352 2.774965 1.3643812 39
4.307879 2.7666709 1.1722327 34
4.3154016 2.7704387 0.98845625 44
4.3007445 2.7599688 0.80240577 38
4.3180194 2.7699912 0.62430102 46
4.3048811 2.7605026 0.4431726 35
4.3199844 2.7691238 0.26602447 44
4.3130445 2.7636135 0.087858126 53
2.9292967 1.8733635 -0.92079562 55
2.9220948 1.8680391 -0.79122907 57
2.9315207 1.8733442 -0.668185 48
2.9330854 1.8736233 -0.54457337 47
3.119159 1.9917185 -0.44905862 11
4.0754681 2.6013622 -0.41965491 36
3.248183 2.0725102 -0.19925754 33
3.3283069 2.1228161 -0.068238907 15
4.316577 2.7520816 1.3605013 37
4.3092933 2.7463801 1.1699851 35
4.3167667 2.7500837 0.98654985 38
4.302021 2.739634 0.80084318 38
4.3151021 2.746906 0.62247556 42
4.3060861 2.7401111 0.44230282 37
4.3169851 2.7459877 0.26524204 40
4.3142281 2.7431765 0.087685339 53
2.9276624 1.8579512 -0.91820908 57
2.9244835 1.8552177 -0.79010516 57
2.9297514 1.8578427 -0.6662786 46
2.9312651 1.8580854 -0.54301071 43
3.1135161 1.9728496 -0.4472332 11
4.1013551 2.5977814 -0.42139801 29
3.2596159 2.0638304 -0.19951834 10
3.3399208 2.1138589 -0.068326168 15
4.3179946 2.731833 1.3579149 39
4.3106179 2.7261131 1.1677371 36
4.3180423 2.729753 0.98464352 49
4.3032084 2.7193244 0.79928052 38
4.312077 2.7238755 0.62065011 39
4.3072009 2.719744 0.44143298 35
4.3138762 2.7229061 0.26445961 39
