# .PCD v0.7 - Point Cloud Data file format
VERSION 0.7
FIELDS x y z intensity
SIZE 4 4 4 4
TYPE F F F F
COUNT 1 1 1 1
WIDTH 1355
HEIGHT 1
VIEWPOINT 0 0 0 1 0 0 0
POINTS 1355
DATA ascii
-0.11031356 3.0520537 -0.69569719 54
-0.11005829 3.0597854 -0.58716398 11
-0.10824811 3.0241525 -0.47269279 11
-0.11654592 3.2719448 -0.39672932 79
-0.11621729 3.2788048 -0.28369194 82
-0.11557341 3.2767944 -0.16926458 78
-0.11513911 3.2807357 -0.056633055 86
-0.11460689 3.2819118 0.86906546 60
-0.11400355 3.2810528 0.74852067 39
-0.11341723 3.2806776 0.63005745 54
-0.11268375 3.2760198 0.51253963 56
-0.11214704 3.2770638 0.39733776 52
-0.11181028 3.2839913 0.2835609 62
-0.11099804 3.276953 0.16926458 64
-0.11055857 3.2809033 0.056066785 67
-0.09864939 3.0214903 -0.79922986 29
-0.099126481 3.0524375 -0.69569719 52
-0.098842882 3.0601683 -0.58716398 11
-0.097163312 3.024529 -0.47269279 10
-0.10455285 3.2723498 -0.39672932 77
-0.10419909 3.2792087 -0.28369194 82
-0.10356259 3.2771962 -0.16926458 84
-0.10311384 3.2811358 -0.056633055 88
-0.10257731 3.28231 0.86906546 57
-0.10197712 3.2814488 0.74852067 39
-0.10139219 3.2810714 0.63005745 53
-0.10067578 3.2764106 0.51253963 53
-0.1002868 3.2824137 0.39794627 52
-0.099773102 3.2843792 0.2835609 57
-0.098986663 3.2773378 0.16926458 63
-0.098532721 3.2812867 0.056066785 63
-0.088101819 3.021816 -0.79922986 33
-0.088470884 3.0527649 -0.69569719 50
-0.088160291 3.0604949 -0.58716398 12
-0.084767729 2.9606748 -0.46253577 8
-0.09312959 3.2726948 -0.39672932 76
-0.09261106 3.2745733 -0.28325617 82
-0.092122413 3.2775378 -0.16926458 80
-0.091659918 3.2814758 -0.056633055 88
-0.091119282 3.2826478 0.86906546 57
-0.09052211 3.2817845 0.74852067 44
-0.089938492 3.2814054 0.63005745 57
-0.089238361 3.2767425 0.51253963 50
-0.08882843 3.2827437 0.39794627 54
-0.088307872 3.2847075 0.2835609 61
-0.087546013 3.2776635 0.16926458 60
-0.086945675 3.2766132 0.055980396 63
-0.077553183 3.0221052 -0.79922986 28
-0.077814206 3.053055 -0.69569719 51
-0.077476636 3.0607839 -0.58716398 11
-0.072819144 2.8967717 -0.45237872 7
-0.081705183 3.273 -0.39672932 75
-0.081180103 3.2748768 -0.28325617 80
-0.0806811 3.2778394 -0.16926458 82
-0.080204874 3.2817757 -0.056633055 86
-0.079660155 3.2829461 0.86906546 54
-0.079065986 3.2820809 0.74852067 40
-0.078483701 3.2816992 0.63005745 53
-0.077799857 3.2770338 0.51253963 49
-0.077368982 3.2830338 0.39794627 58
-0.076841563 3.2849958 0.2835609 57
-0.076104298 3.2779489 0.16926458 61
-0.075507641 3.2768967 0.055980396 65
-0.067003585 3.0223577 -0.79922986 27
-0.067263715 3.0581789 -0.69682103 53
-0.066899113 3.0659428 -0.58811718 12
-0.062600203 2.8920705 -0.45159739 7
-0.070279785 3.2732654 -0.39672932 79
-0.069748156 3.2751403 -0.28325617 80
-0.069238819 3.278101 -0.16926458 83
-0.068748847 3.2820356 -0.056633055 84
-0.068200052 3.2832043 0.86906546 58
-0.067608908 3.2823367 0.74852067 39
-0.067027956 3.2819533 0.63005745 51
-0.066360392 3.2772853 0.51253963 59
-0.065908581 3.2832839 0.39794627 57
-0.065374315 3.285244 0.2835609 57
-0.064661659 3.2781944 0.16926458 57
-0.064068675 3.2771401 0.055980396 67
-0.056362998 3.0177443 -0.79793668 25
-0.056588266 3.0583954 -0.69682103 52
-0.056196567 3.0661576 -0.58811718 12
-0.052325338 2.8823957 -0.4500348 7
-0.058853526 3.2734907 -0.39672932 77
-0.058315363 3.2753639 -0.28325617 82
-0.057795692 3.2783227 -0.16926458 84
-0.057204735 3.2772574 -0.056545794 90
-0.056739114 3.2834222 0.86906546 51
-0.056151003 3.2825527 0.74852067 40
-0.055571396 3.2821672 0.63005745 55
-0.054920133 3.2774973 0.51253963 50
-0.054447379 3.283494 0.39794627 58
-0.053906281 3.2854524 0.2835609 63
-0.053218234 3.2784004 0.16926458 57
-0.052628927 3.2773438 0.055980396 61
-0.045902092 3.0227518 -0.79922986 25
-0.045912132 3.0585742 -0.69682103 49
-0.045493335 3.066335 -0.58811718 12
-0.042480782 2.8973753 -0.45237872 7
-0.047426552 3.2736762 -0.39672932 80
-0.046881851 3.2755473 -0.28325617 82
-0.046351857 3.2785044 -0.16926458 83
-0.045764629 3.277437 -0.056545794 84
-0.045277484 3.2836003 0.86906546 51
-0.044692412 3.2827287 0.74852067 38
-0.044114154 3.2823412 0.63005745 58
-0.043479193 3.277669 0.51253963 52
-0.042985514 3.283664 0.39794627 60
-0.042437583 3.2856205 0.2835609 60
-0.041774157 3.2785661 0.16926458 57
-0.041188546 3.2775075 0.055980396 74
-0.035237484 3.0132346 -0.79664338 12
-0.035235435 3.0587156 -0.69682103 52
-0.034789547 3.0664752 -0.58811718 12
-0.032421958 2.9024439 -0.45316002 8
-0.035999 3.2738218 -0.39672932 81
-0.035447773 3.275691 -0.28325617 82
-0.034907456 3.2786465 -0.16926458 87
-0.034323961 3.2775767 -0.056545794 86
-0.033815302 3.2837386 0.86906546 53
-0.033233281 3.2828646 0.74852067 39
-0.032656379 3.2824752 0.63005745 55
-0.032037731 3.2778006 0.51253963 50
-0.031523127 3.2837942 0.39794627 60
-0.030968366 3.2857485 0.2835609 58
-0.030329568 3.2786918 0.16926458 63
-0.029747657 3.2776315 0.055980396 74
-0.024639878 3.00368 -0.79405689 3
-0.024558309 3.05882 -0.69682103 50
-0.024085343 3.0665781 -0.58811718 12
-0.022404116 2.9173548 -0.45550397 9
-0.024571011 3.2739277 -0.39672932 79
-0.024013259 3.2757947 -0.28325617 82
-0.023462631 3.2787483 -0.16926458 85
-0.022882869 3.2776766 -0.056545794 84
-0.02235271 3.2838361 0.86906546 58
-0.021773739 3.2829609 0.74852067 39
-0.021198202 3.2825692 0.63005745 63
-0.020595877 3.2778926 0.51253963 56
-0.020060357 3.283884 0.39794627 63
-0.019498775 3.2858365 0.2835609 63
-0.018884614 3.2787778 0.16926458 61
-0.017734336 3.2777185 0.055980396 65
nan nan nan 0
-0.01332575 3.0540175 -0.69569719 55
-0.01286617 3.0715542 -0.58907038 12
-0.011909574 2.9668028 -0.46331707 9
-0.012571302 3.2739956 -0.39672932 81
-0.01200671 3.2758608 -0.28325617 80
-0.011445261 3.2788122 -0.16926458 82
-0.010869432 3.2777383 -0.056545794 90
-0.010316699 3.2838962 0.86906546 61
-0.0097409412 3.2830184 0.74852067 39
-0.0091668423 3.2826247 0.63005745 60
-0.0085816626 3.2779462 0.51253963 52
-0.008024184 3.2839355 0.39794627 54
-0.0074554509 3.285886 0.2835609 64
-0.0068671652 3.278825 0.16926458 64
-0.0062928558 3.2777605 0.055980396 67
nan nan nan 0
-0.0026651579 3.0540454 -0.69569719 53
-0.0021443679 3.0715802 -0.58907038 12
-0.0015766992 3.0112736 -0.47034886 11
-0.0011428485 3.2740195 -0.39672932 81
-0.00057261874 3.2808638 -0.28369194 80
-6.0231168e-16 3.2788322 -0.16926458 80
0.00057207642 3.2777565 -0.056545794 84
0.0011463017 3.2839122 0.86906546 61
0.0017189919 3.2830324 0.74852067 39
0.0022917131 3.2826369 0.63005745 60
0.0028605568 3.277956 0.51253963 53
0.0034389389 3.2839437 0.39794627 52
0.0040144762 3.2858918 0.2835609 57
0.0045781117 3.2788291 0.16926458 57
0.0051487014 3.2777624 0.055980396 61
0.0051209219 2.0957618 -0.55092543 2
0.0079954667 3.0540364 -0.69569719 60
0.0085911676 3.0764775 -0.59002358 12
0.0090371873 3.0458302 -0.47581801 12
0.01028562 3.2740035 -0.39672932 81
0.010879736 3.2808456 -0.28369194 82
0.011445261 3.2788122 -0.16926458 82
0.012031901 3.2827334 -0.056633055 84
0.012609287 3.2838881 0.86906546 59
0.013178905 3.2830064 0.74852067 40
0.01375024 3.282609 0.63005745 54
0.014302741 3.277926 0.51253963 50
0.01490202 3.2839115 0.39794627 54
0.015507827 3.2908387 0.28399581 58
0.016023332 3.2787931 0.16926458 57
0.016590197 3.2777245 0.055980396 59
0.012436465 2.095731 -0.55092543 2
0.018685754 3.0588617 -0.69682103 56
0.019330025 3.0764287 -0.59002358 13
0.019700956 3.0507188 -0.47659937 12
0.021713961 3.273948 -0.39672932 83
0.022331959 3.2807877 -0.28369194 84
0.02289038 3.2787523 -0.16926458 78
0.023490706 3.2826715 -0.056633055 88
0.024072118 3.2838242 0.86906546 58
0.024638655 3.2829406 0.74852067 38
0.025208598 3.2825408 0.63005745 52
0.025744751 3.2778561 0.51253963 56
0.026364919 3.2838395 0.39794627 55
0.026994901 3.2907646 0.28399581 60
0.027468359 3.278717 0.16926458 61
0.028031489 3.2776465 0.055980396 53
0.019842895 2.1053343 -0.55351192 3
0.029316293 3.053906 -0.69569719 56
0.030116618 3.0812502 -0.59097672 12
0.030202443 3.0358164 -0.47425541 11
0.033142041 3.2738519 -0.39672932 76
0.033783909 3.28069 -0.28369194 82
0.034335226 3.2786524 -0.16926458 80
0.034949224 3.2825696 -0.056633055 86
0.035534661 3.2837203 0.86906546 57
0.036098108 3.2828343 0.74852067 39
0.03666665 3.2824328 0.63005745 52
0.037186444 3.2777462 0.51253963 49
0.037827495 3.2837274 0.39794627 61
0.038481649 3.2906501 0.28399581 59
0.038913049 3.2786012 0.16926458 57
0.039472438 3.2775285 0.055980396 61
0.027067006 2.0955932 -0.55092543 4
0.040167551 3.0683997 -0.69906884 37
0.040872 3.0811262 -0.59097672 13
0.040467396 3.0110021 -0.47034886 10
0.044569712 3.2737162 -0.39672932 77
0.045235448 3.2805519 -0.28369194 82
0.045779649 3.2785125 -0.16926458 83
0.04640732 3.2824275 -0.056633055 86
0.046996765 3.2835763 0.86906546 53
0.047557116 3.2826884 0.74852067 38
0.048124254 3.282285 0.63005745 64
0.048627689 3.2775965 0.51253963 52
0.049289618 3.2835753 0.39794627 68
0.04996793 3.2904959 0.28399581 56
0.050357267 3.2784455 0.16926458 53
0.050912909 3.2773712 0.055980396 65
0.034461066 2.1003156 -0.55221874 3
0.050635692 3.0536268 -0.69569719 5
0.051626895 3.0809648 -0.59097672 12
0.050057858 2.9565258 -0.46175444 8
0.055996846 3.273541 -0.39672932 79
0.056686439 3.2803741 -0.28369194 80
0.05722351 3.2783329 -0.16926458 79
0.057864849 3.2822454 -0.056633055 86
0.058458302 3.2833922 0.86906546 55
0.059015546 3.2825024 0.74852067 39
0.059581276 3.2820969 0.63005745 62
0.060068343 3.2774067 0.51253963 56
0.060751133 3.2833834 0.39794627 68
0.06136059 3.2853215 0.2835609 62
0.061894983 3.2832422 0.1695254 57
0.062352762 3.2771733 0.055980396 61
0.041888412 2.105011 -0.55351192 3
0.061294526 3.0534315 -0.69569719 3
0.062381152 3.0807657 -0.59097672 12
0.059268508 2.90202 -0.45316002 7
0.067423292 3.2733254 -0.39672932 79
0.068136737 3.2801564 -0.28369194 80
0.068666682 3.2781131 -0.16926458 83
0.06932167 3.2820237 -0.056633055 84
0.069919117 3.2831681 0.86906546 56
0.070473261 3.2822764 0.74852067 38
0.071037568 3.2818689 0.63005745 61
0.071508259 3.2771771 0.51253963 54
0.072211906 3.2831511 0.39794627 60
0.072828121 3.2850873 0.2835609 57
0.073355265 3.2830062 0.1695254 74
0.073791854 3.2769356 0.055980396 67
0.049123079 2.1000235 -0.55221874 2
nan nan nan 0
0.073134653 3.0805295 -0.59097672 12
0.069398083 2.9017954 -0.45316002 7
0.078848921 3.2730703 -0.39672932 78
0.0795862 3.2798984 -0.28369194 82
0.080109015 3.2778535 -0.16926458 83
0.080777645 3.2817616 -0.056633055 86
0.081379086 3.2829041 0.86906546 58
0.081930116 3.2820106 0.74852067 40
0.082493 3.281601 0.63005745 57
0.082947306 3.2769077 0.51253963 56
0.083671808 3.2828791 0.39794627 57
0.084294781 3.2848129 0.2835609 60
0.084814645 3.2827301 0.1695254 65
0.085230038 3.2766583 0.055980396 67
0.056193624 2.090183 -0.54963219 2
nan nan nan 0
0.083887264 3.0802553 -0.59097672 11
0.079256199 2.8916621 -0.45159739 7
0.090273596 3.2727749 -0.39672932 81
0.091172904 3.2845795 -0.28412771 82
0.091550373 3.277554 -0.16926458 86
0.092232645 3.2814598 -0.056633055 86
0.092838064 3.2825999 0.86906546 60
0.093524553 3.2865746 0.74964464 39
0.094087899 3.2861996 0.63101065 47
0.094385341 3.2765982 0.51253963 57
0.095130682 3.2825673 0.39794627 60
0.095760398 3.2844987 0.2835609 62
0.096272998 3.2824137 0.1695254 70
0.096667193 3.2763407 0.055980396 65
0.06334272 2.0851464 -0.54833895 2
0.061574828 2.0153604 -0.45630541 2
0.094638847 3.0799434 -0.59097672 10
0.089196973 2.8864317 -0.45081612 7
0.10169715 3.27244 -0.39672932 79
0.10263767 3.2842414 -0.28412771 80
0.10314744 3.2822049 -0.1695254 82
0.10368651 3.2811177 -0.056633055 84
0.10444931 3.2870831 0.87035877 58
0.10499626 3.2862279 0.74964464 38
0.10555831 3.285851 0.63101065 50
0.10582224 3.2762485 0.51253963 52
0.1065884 3.2822151 0.39794627 55
0.10738739 3.2891226 0.28399581 57
0.10773017 3.2820578 0.1695254 65
0.10810316 3.2759833 0.055980396 63
0.070293851 2.0752585 -0.54575241 2
0.070267208 2.0638254 -0.46754444 4
0.10555716 3.0845001 -0.59192997 9
0.099271953 2.8861027 -0.45081612 7
0.11311948 3.2720649 -0.39672932 77
0.11410119 3.2838631 -0.28412771 82
0.11460385 3.2818251 -0.1695254 82
0.11531445 3.285732 -0.05672032 86
0.11592273 3.2866986 0.87035877 60
0.11646671 3.2858415 0.74964464 37
0.11702742 3.2854626 0.63101065 49
0.11725783 3.2758591 0.51253963 56
0.11804482 3.2818229 0.39794627 57
0.11886791 3.2887278 0.28399581 57
0.11918603 3.2816617 0.1695254 63
0.11972014 3.2805817 0.056066785 63
0.077357084 2.0701742 -0.54445922 2
0.076556988 2.0392244 -0.46192494 26
0.11613842 3.0792079 -0.59097672 6
0.10934573 2.8857386 -0.45081612 7
0.12472921 3.2766094 -0.39733776 81
0.12537298 3.2784674 -0.28369194 82
0.12605886 3.281405 -0.1695254 82
0.1267831 3.2853096 -0.05672032 88
0.12739475 3.286274 0.87035877 59
0.12793572 3.2854149 0.74964464 40
0.12849511 3.2850342 0.63101065 56
0.12869202 3.27543 0.51253963 53
0.12949979 3.2813909 0.39794627 64
0.130347 3.2882926 0.28399581 65
0.13064045 3.2812257 0.1695254 63
0.13117078 3.280144 0.056066785 67
0.084385656 2.0650654 -0.54316592 3
0.08207655 2.0000012 -0.45293367 20
0.12668407 3.0738797 -0.59002358 4
0.1206435 2.9149454 -0.45550397 7
0.13616595 3.276154 -0.39733776 79
0.1368162 3.2780099 -0.28369194 80
0.13751233 3.2809451 -0.1695254 81
0.13825022 3.284847 -0.05672032 84
0.1388652 3.2858093 0.87035877 59
0.13940319 3.2849483 0.74964464 39
0.13996124 3.2845657 0.63101065 52
0.1401246 3.2749608 0.51253963 54
0.1409532 3.2809191 0.39794627 60
0.14182448 3.2878177 0.28399581 65
0.14209327 3.2807498 0.1695254 58
0.14261983 3.2796662 0.056066785 70
0.091379523 2.0599337 -0.54187268 17
0.089490883 2.0094368 -0.45518148 21
0.13500158 3.0194814 -0.57953846 3
0.13369662 2.9786437 -0.46566102 9
0.14760102 3.2756586 -0.39733776 75
0.14825775 3.2775123 -0.28369194 80
0.14896414 3.2804449 -0.1695254 82
0.14971562 3.2843444 -0.05672032 86
0.15033399 3.2853043 0.87035877 62
0.15086895 3.2844417 0.74964464 38
0.15142566 3.2840571 0.63101065 61
0.15178382 3.2793849 0.51332092 46
0.15263522 3.2853644 0.39855474 63
0.15330024 3.2873027 0.28399581 58
0.15377782 3.2852216 0.1697862 61
0.15406713 3.2791483 0.056066785 67
0.098338582 2.0547774 -0.54057944 25
0.096270837 2.004246 -0.4540576 25
0.14743148 3.0582125 -0.58716398 10
0.14719586 3.0422852 -0.47581801 11
0.15903431 3.2751234 -0.39733776 79
0.15993996 3.28195 -0.28412771 82
0.16041411 3.2799051 -0.1695254 80
0.16117921 3.2838018 -0.05672032 84
0.16203853 3.2895837 0.87165201 57
0.16233288 3.283895 0.74964464 39
0.16288824 3.2835083 0.63101065 61
0.16323008 3.2788353 0.51332092 50
0.16410235 3.2848117 0.39855474 60
0.16477413 3.2867477 0.28399581 57
0.16524445 3.2846646 0.1697862 61
0.1657646 3.2835834 0.056153174 70
0.1056205 2.0495799 -0.5392862 21
0.10361612 2.0038798 -0.4540576 23
0.15787646 3.0429466 -0.58430439 7
0.15962912 3.0663848 -0.47972459 11
0.17103717 3.2745185 -0.39733776 77
0.17196783 3.2813416 -0.28412771 82
0.17243449 3.279295 -0.1695254 80
0.17347725 3.2881813 -0.056807578 86
0.17409436 3.2889678 0.87165201 56
0.17436785 3.283278 0.74964464 39
0.17518295 3.2877905 0.63196379 57
0.17524651 3.2782147 0.51332092 53
0.1761407 3.2841883 0.39855474 63
0.17681956 3.2861214 0.28399581 59
0.17728223 3.2840369 0.1697862 64
0.17779844 3.2829537 0.056153174 70
0.11250883 2.0443761 -0.53799289 26
0.11034175 1.9986409 -0.45293367 25
nan nan nan 0
0.17005786 3.0608776 -0.47894326 12
0.18246634 3.2739017 -0.39733776 79
0.18342081 3.2807214 -0.28412771 80
0.18415992 3.2836585 -0.1697862 80
0.18495409 3.2875557 -0.056807578 85
0.18557395 3.2883401 0.87165201 64
0.18610293 3.2875135 0.75076848 38
0.18665841 3.287159 0.63196379 61
0.18668856 3.2775831 0.51332092 56
0.18760356 3.2835534 0.39855474 58
0.1882892 3.2854841 0.28399581 68
0.18874459 3.2833984 0.1697862 58
0.189257 3.2823133 0.056153174 65
0.11936211 2.0391493 -0.53669971 24
0.1170321 1.9933802 -0.45180979 27
0.17651947 2.9976721 -0.57572573 3
0.18132363 3.0701256 -0.48050591 12
0.19389327 3.2732446 -0.39733776 79
0.19487153 3.2800612 -0.28412771 84
0.19562091 3.2829955 -0.1697862 83
0.19642867 3.28689 -0.056807578 86
0.19705127 3.2876723 0.87165201 62
0.19757734 3.2868438 0.75076848 39
0.19813159 3.2864873 0.63196379 58
0.19842638 3.281841 0.51410228 50
0.19906417 3.2828784 0.39855474 68
0.20005889 3.2897792 0.28443071 59
0.20020464 3.2827194 0.1697862 63
0.20071326 3.2816327 0.056153174 65
0.12618028 2.0338995 -0.53540641 28
0.12398958 1.9929594 -0.45180979 30
0.12127177 1.9438002 -0.37079024 2
0.19203927 3.069474 -0.48050591 12
0.20562862 3.2775011 -0.39794627 77
0.20631991 3.279361 -0.28412771 80
0.2070795 3.2822928 -0.1697862 83
0.20790085 3.2861843 -0.056807578 85
0.20852618 3.2869642 0.87165201 61
0.20904937 3.286134 0.75076848 37
0.20960237 3.2857757 0.63196379 61
0.20988092 3.2811284 0.51410228 53
0.21052234 3.2821634 0.39855474 64
0.21154115 3.2890606 0.28443071 55
0.21166225 3.2820005 0.1697862 64
0.21216707 3.2809122 0.056153174 61
0.13296326 2.0286274 -0.53411317 29
0.13094556 1.9925145 -0.45180979 30
nan nan nan 0
0.20307814 3.0737128 -0.48128721 12
0.21706796 3.2767634 -0.39794627 77
0.21809584 3.2835906 -0.28456348 82
0.21853557 3.2815499 -0.1697862 82
0.21937051 3.2854388 -0.056807578 88
0.21999857 3.2862165 0.87165201 62
0.22051884 3.2853844 0.75076848 36
0.22107057 3.2850239 0.63196379 59
0.22133291 3.2803757 0.51410228 49
0.22197793 3.2814088 0.39855474 58
0.22302081 3.2883022 0.28443071 53
0.22311726 3.2812419 0.1697862 65
0.2239583 3.2851391 0.056239564 65
0.13971096 2.0233324 -0.53281993 33
0.13756347 1.9871848 -0.45068586 36
0.134839 1.9429061 -0.37079024 2
0.21380615 3.0729852 -0.48128721 12
0.22850469 3.2759857 -0.39794627 79
0.22955638 3.2828093 -0.28456348 78
0.22998901 3.280767 -0.1697862 82
0.23083751 3.2846527 -0.056807578 85
0.23146826 3.2854283 0.87165201 65
0.23198566 3.2845945 0.75076848 39
0.23253612 3.2842321 0.63196379 59
0.2327822 3.2795835 0.51410228 57
0.23343085 3.2806139 0.39855474 60
0.23449777 3.2875037 0.28443071 56
0.23492572 3.2854235 0.17004701 60
0.23599744 3.284296 0.056239564 65
0.14712591 2.0228066 -0.53281993 35
0.14449167 1.9818082 -0.44956198 37
0.14195921 1.9423989 -0.37079024 3
0.22506778 3.072181 -0.48128721 12
0.24051023 3.275126 -0.39794627 79
0.24158695 3.2819459 -0.28456348 82
0.2423795 3.2848816 -0.17004701 79
0.24287482 3.2837846 -0.056807578 85
0.2435084 3.2845581 0.87165201 64
0.24402271 3.2837224 0.75076848 38
0.24457188 3.2833581 0.63196379 59
0.24480094 3.2787082 0.51410228 56
0.24545333 3.2797363 0.39855474 55
0.24654551 3.2866223 0.28443071 56
0.24696581 3.2845402 0.17004701 60
0.24746034 3.283452 0.056239564 65
0.15381876 2.0174651 -0.53152668 38
0.15140858 1.9812917 -0.44956198 34
0.14723916 1.9223157 -0.36697748 3
0.23579031 3.0713766 -0.48128721 12
0.25194111 3.2742667 -0.39794627 83
0.25304163 3.2810826 -0.28456348 82
0.25384438 3.2840157 -0.17004701 84
0.25433588 3.282917 -0.056807578 86
0.25534609 3.2885036 0.87294525 67
0.25548357 3.2828505 0.75076848 38
0.25603145 3.2824841 0.63196379 61
0.25662917 3.282757 0.51488352 53
0.25728792 3.2838073 0.39916322 61
0.25801647 3.2857416 0.28443071 60
0.2584295 3.283658 0.17004701 63
0.25892022 3.2825682 0.056239564 63
0.16086009 2.0169158 -0.53152668 41
0.15832366 1.9807512 -0.44956198 37
0.15198874 1.8973269 -0.36221156 3
0.24650998 3.0705349 -0.48128721 12
0.26336887 3.2733674 -0.39794627 79
0.2648935 3.2851441 -0.28499928 82
0.2653062 3.2831097 -0.17004701 83
0.26619741 3.2869923 -0.056894843 88
0.26682356 3.2875919 0.87294525 64
0.26733628 3.2867949 0.75189245 39
0.26748791 3.2815704 0.63196379 65
0.26808655 3.2818413 0.51488352 52
0.26874897 3.2828891 0.39916322 58
0.26948425 3.2848208 0.28443071 65
0.26989004 3.2827361 0.17004701 66
0.27078745 3.2866271 0.056325953 70
0.16749865 2.0115287 -0.53023344 40
0.16483167 1.9753313 -0.44843808 37
0.15983775 1.9114586 -0.36507112 3
0.25681427 3.0647342 -0.48050591 12
0.27520874 3.2773736 -0.39855474 81
0.2763592 3.2841997 -0.28499928 78
0.27676478 3.2821636 -0.17004701 79
0.27766952 3.2860429 -0.056894843 85
0.27829775 3.2866406 0.87294525 57
0.27880773 3.2858417 0.75189245 40
0.27894107 3.2806168 0.63196379 67
0.27995995 3.2858062 0.51566488 52
0.28020677 3.2819312 0.39916322 55
0.28137335 3.2888229 0.28486562 57
0.28134727 3.2817738 0.17004701 61
0.28225827 3.2856617 0.056325953 59
0.17451918 2.0109317 -0.53023344 41
0.17172584 1.9747438 -0.44843808 35
0.16650903 1.910889 -0.36507112 4
0.26751059 3.0638192 -0.48050591 11
0.28664726 3.2763932 -0.39855474 79
0.28782153 3.2832148 -0.28499928 82
0.28821999 3.2811775 -0.17004701 78
0.28957653 3.2900333 -0.056982104 88
0.29019284 3.2904603 0.87423849 61
0.29027575 3.2848485 0.75189245 41
0.29082382 3.2845125 0.63291705 63
0.29142788 3.2848089 0.51566488 56
0.29166111 3.2809331 0.39916322 56
0.29285181 3.2878206 0.28486562 60
0.29280108 3.2807717 0.17004701 60
0.29372564 3.2846565 0.056325953 59
0.18110318 2.0055001 -0.52894014 40
0.17817894 1.9692802 -0.44731417 35
0.17362139 1.9151843 -0.36602432 4
0.27552328 3.0333564 -0.47581801 11
0.29808223 3.2753725 -0.39855474 83
0.29928032 3.2821901 -0.28499928 84
0.30012596 3.2851241 -0.17030782 84
0.30105913 3.2890024 -0.056982104 86
0.30167693 3.2894273 0.87423849 61
0.30218601 3.2886667 0.75301629 41
0.3022871 3.2834775 0.63291705 62
0.30289221 3.2837718 0.51566488 54
0.30356863 3.2848363 0.39977169 52
0.30432665 3.2867785 0.28486562 57
0.30425134 3.2797296 0.17004701 63
0.30518943 3.2836113 0.056325953 63
0.18810259 2.0048556 -0.52894014 41
0.18505192 1.9686463 -0.44731417 35
0.18030557 1.9145666 -0.36602432 5
0.28425434 3.0127091 -0.47269279 8
0.30998066 3.2792528 -0.39916322 79
0.31073546 3.2811253 -0.28499928 80
0.31159136 3.2840562 -0.17030782 85
0.31253809 3.2879314 -0.056982104 88
0.31315735 3.2883542 0.87423849 62
0.31366375 3.2875919 0.75301629 39
0.31421375 3.2872882 0.63387018 62
0.31435287 3.2826946 0.51566488 54
0.31503299 3.2837567 0.39977169 56
0.31627434 3.2906544 0.28530052 58
0.31617644 3.283618 0.17030782 63
0.31712955 3.2875021 0.056412343 63
0.19463174 1.9993799 -0.5276469 49
0.19144975 1.9631392 -0.44619027 37
0.18698755 1.9139256 -0.36602432 5
0.29188257 2.9822083 -0.46800491 6
0.3214255 3.2781508 -0.39916322 79
0.32267377 3.2849779 -0.28543505 80
0.32305294 3.2829487 -0.17030782 86
0.32401317 3.2868207 -0.056982104 88
0.32463393 3.2872407 0.87423849 66
0.32513767 3.2864771 0.75301629 40
0.32568663 3.2861712 0.63387018 62
0.32580969 3.2815771 0.51566488 54
0.32649353 3.2826371 0.39977169 57
0.32775894 3.2895305 0.28530052 61
0.32763651 3.2824943 0.17030782 62
0.32917672 3.2863176 0.056412343 61
0.20195854 1.9986531 -0.5276469 45
0.19864373 1.9624243 -0.44619027 37
0.19400118 1.9132273 -0.36602432 5
0.29782021 2.9319854 -0.46019182 4
0.33343837 3.2769506 -0.39916322 83
0.33471164 3.2837732 -0.28543505 78
0.33508337 3.2817426 -0.17030782 85
0.33656651 3.2905843 -0.057069365 86
0.33668011 3.2860291 0.87423849 67
0.33718103 3.2852633 0.75301629 38
0.33772886 3.2849555 0.63387018 64
0.338341 3.2852736 0.51644617 59
0.33903208 3.2863553 0.40038019 48
0.34032547 3.2932613 0.28573543 55
0.33966523 3.2812715 0.17030782 63
0.34064609 3.2851486 0.056412343 63
0.20893392 1.9979359 -0.5276469 46
0.20549266 1.961719 -0.44619027 38
0.20067842 1.9125384 -0.36602432 6
0.30598807 2.9112821 -0.4570666 5
0.34487504 3.2757668 -0.39916322 81
0.34617209 3.2825847 -0.28543505 80
0.34653676 3.2805526 -0.17030782 80
0.34805074 3.2893896 -0.057069365 85
0.34814844 3.2848339 0.87423849 68
0.34916106 3.2889111 0.75414026 37
0.34971246 3.2886374 0.63482338 60
0.3498067 3.2840726 0.51644617 53
0.35050154 3.2851517 0.40038019 55
0.35181901 3.2920535 0.28573543 54
0.35164839 3.2850306 0.17056863 62
0.35211134 3.2839394 0.056412343 63
0.21590674 1.9971945 -0.5276469 47
0.21233907 1.9609898 -0.44619027 40
0.2073532 1.9118264 -0.36602432 7
nan nan nan 0
0.35684431 3.2794766 -0.39977169 85
0.35762835 3.2813566 -0.28543505 80
0.35852778 3.284287 -0.17056863 84
0.35953072 3.2881546 -0.057069365 86
0.35961252 3.2835987 0.87423849 68
0.36063939 3.2876723 0.75414026 39
0.36118981 3.2873964 0.63482338 61
0.36126813 3.2828314 0.51644617 53
0.36196673 3.2839081 0.40038019 57
0.36385491 3.2957566 0.28617036 64
0.36311316 3.283783 0.17056863 60
0.36412263 3.2876594 0.056498732 63
0.22287694 1.9964286 -0.5276469 53
0.21918294 1.9602365 -0.44619027 40
0.21347919 1.9062132 -0.36507112 7
0.27290672 2.4330182 -0.3812795 3
0.36828965 3.2782109 -0.39977169 78
0.36963725 3.285038 -0.28587085 84
0.36998987 3.2830155 -0.17056863 80
0.37156707 3.2918472 -0.057156626 88
0.37161481 3.287123 0.87553179 64
0.37211329 3.2863932 0.75414026 39
0.37266278 3.2861156 0.63482338 60
0.37328249 3.2864575 0.51722747 47
0.37398842 3.2875557 0.40098864 58
0.375357 3.2944665 0.28617036 58
0.3745735 3.2824957 0.17056863 61
0.37559649 3.2863684 0.056498732 57
0.22984442 1.9956385 -0.5276469 50
0.22602411 1.9594597 -0.44619027 42
0.22013183 1.9054564 -0.36507112 8
0.27572158 2.382992 -0.37346637 3
0.37973049 3.2769055 -0.39977169 80
0.38110191 3.2837276 -0.28587085 78
0.38202399 3.2866638 -0.17082943 84
0.38305548 3.29053 -0.057156626 84
0.38308674 3.2858055 0.87553179 62
0.38358268 3.2850742 0.75414026 37
0.38413116 3.2847948 0.63482338 59
0.38475209 3.2851346 0.51722747 53
0.38546187 3.2862303 0.40098864 57
0.38685456 3.2931361 0.28617036 57
0.38661265 3.2861271 0.17082943 58
0.38765073 3.2900019 0.056585122 59
0.23680909 1.9948241 -0.5276469 47
0.2328625 1.9586586 -0.44619027 44
0.22678176 1.9046763 -0.36507112 9
0.2811144 2.3574963 -0.36955982 3
0.39175522 3.280488 -0.40038019 80
0.39256191 3.2823775 -0.28587085 78
0.39349428 3.2853103 -0.17082943 83
0.39453924 3.2891729 -0.057156626 86
0.39513004 3.2892435 0.87682498 61
0.39562935 3.2885525 0.7552641 40
0.39618206 3.2883072 0.63577664 63
0.39680859 3.2886741 0.51800877 55
0.39752597 3.2897918 0.40159714 57
0.39894578 3.2967103 0.28660524 58
0.39808106 3.2847576 0.17082943 54
0.39913261 3.2886288 0.056585122 55
0.24377088 1.9939852 -0.5276469 44
0.2396981 1.9578339 -0.44619027 42
0.23342893 1.9038731 -0.36507112 9
0.28994372 2.361402 -0.37034112 3
0.40320385 3.2791004 -0.40038019 80
0.40401718 3.280987 -0.28587085 80
0.40557086 3.2888722 -0.17109025 84
0.4060182 3.2877758 -0.057156626 83
0.40660927 3.2878442 0.87682498 57
0.4071061 3.2871516 0.7552641 39
0.40765798 3.2869043 0.63577664 63
0.4082858 3.2872691 0.51800877 53
0.40900704 3.288384 0.40159714 57
0.41045099 3.2952976 0.28660524 57
0.4101626 3.2883027 0.17109025 60
0.41060966 3.2872155 0.056585122 57
0.25072971 1.9931221 -0.5276469 48
0.24653074 1.9569852 -0.44619027 41
0.24007326 1.9030467 -0.36507112 10
0.29756585 2.3554764 -0.36955982 3
0.41464761 3.277673 -0.40038019 81
0.41609347 3.2844982 -0.28630662 80
0.41704872 3.2874365 -0.17109025 82
0.41812226 3.2912979 -0.057243891 84
0.41869301 3.2911959 0.87811828 63
0.41857791 3.2857106 0.7552641 45
0.41912892 3.2854612 0.63577664 62
0.41975799 3.2858238 0.51800877 57
0.4204832 3.2869363 0.40159714 58
0.42195129 3.2938449 0.28660524 58
0.4216384 3.2868509 0.17109025 58
0.42208168 3.2857623 0.056585122 65
0.25830501 1.9970245 -0.52894014 52
0.25336039 1.9561127 -0.44619027 44
0.247346 1.9070646 -0.36602432 10
0.30515009 2.3495255 -0.3687785 3
0.42672631 3.281127 -0.40098864 78
0.42755598 3.283026 -0.28630662 82
0.42852142 3.2859607 -0.17109025 84
0.42960849 3.2898183 -0.057243891 86
0.43017891 3.2897146 0.87811828 59
0.43004462 3.2842293 0.7552641 39
0.43059477 3.2839785 0.63577664 65
0.43122512 3.2843387 0.51800877 53
0.43260106 3.2903688 0.40220562 55
0.43409652 3.2972908 0.28704017 60
0.4331091 3.2853591 0.17109025 60
0.43354854 3.2842686 0.056585122 61
0.26527435 1.9961109 -0.52894014 46
0.26082963 1.9600459 -0.44731417 46
0.25400138 1.9061896 -0.36602432 11
0.31269646 2.3435512 -0.3679972 3
0.43817699 3.2796173 -0.40098864 80
0.43967375 3.2864504 -0.28674239 78
0.43998894 3.284445 -0.17109025 83
0.4417541 3.2932534 -0.057331149 84
0.44165954 3.288193 0.87811828 60
0.44215554 3.2875366 0.75638807 39
0.44205537 3.2824554 0.63577664 65
0.44268698 3.2828133 0.51800877 54
0.44408393 3.2888386 0.40220562 55
0.44560361 3.2957551 0.28704017 59
0.44524443 3.2887754 0.17135105 61
0.44568169 3.2876897 0.056671511 63
0.27224046 1.9951726 -0.52894014 43
0.26766989 1.9591235 -0.44731417 43
0.26065364 1.9052913 -0.36602432 9
0.3195346 2.3326595 -0.3664346 3
0.44962233 3.2780678 -0.40098864 76
0.45114294 3.2848957 -0.28674239 82
0.45213142 3.2878356 -0.17135105 82
0.45324701 3.2916915 -0.057331149 83
0.45379442 3.2914157 0.87941152 57
0.45362851 3.2859733 0.75638807 38
0.45418262 3.285754 0.63672978 66
0.45482054 3.2861402 0.51879013 44
0.45624271 3.2921844 0.40281412 55
0.45710519 3.2941797 0.28704017 56
0.45672166 3.2872012 0.17135105 64
0.4571552 3.2861137 0.056671511 55
0.27920324 1.9942102 -0.52894014 38
0.27450687 1.9581772 -0.44731417 39
0.26730281 1.9043698 -0.36602432 10
0.32698783 2.3266392 -0.36565328 4
0.46106219 3.2764785 -0.40098864 80
0.46260664 3.2833009 -0.28674239 80
0.46360534 3.2862372 -0.17135105 82
0.46543363 3.2950394 -0.057418413 88
0.46528086 3.2898116 0.87941152 53
0.46577901 3.2891934 0.75751191 38
0.46564931 3.2841485 0.63672978 61
0.46628851 3.2845325 0.51879013 50
0.4677318 3.2905719 0.40281412 61
0.46860129 3.2925642 0.28704017 54
0.46889773 3.2905302 0.17161186 59
0.46990332 3.2893653 0.056757901 67
0.28651053 1.9931736 -0.52894014 39
0.2816821 1.957158 -0.44731417 39
0.27428088 1.9033774 -0.36602432 9
0.3355132 2.3254251 -0.36565328 4
0.47377756 3.2796783 -0.40159714 83
0.47535038 3.2865126 -0.28717816 82
0.4763625 3.2894578 -0.17161186 79
0.47750744 3.2933114 -0.057418413 83
0.47733545 3.2880843 0.87941152 53
0.47783136 3.2874644 0.75751191 39
0.47839007 3.2872772 0.63768297 67
0.47903579 3.2876883 0.51957142 44
0.48050565 3.2937465 0.40342256 54
0.48138586 3.295753 0.28747508 57
0.48095497 3.2887895 0.17161186 60
0.48138246 3.2877049 0.056757901 61
0.29346624 1.9921612 -0.52894014 38
0.28851217 1.9561628 -0.44731417 38
0.28092322 1.9024084 -0.36602432 8
0.34290609 2.3193545 -0.36487198 4
0.48522288 3.2780046 -0.40159714 80
0.4868196 3.2848334 -0.28717816 80
0.48784196 3.287775 -0.17161186 81
0.48900035 3.2916248 -0.057418413 81
0.4895207 3.2911751 0.88070476 59
0.4900215 3.2905955 0.75863582 39
0.48986188 3.2855873 0.63768297 67
0.49050906 3.285996 0.51957142 46
0.49200004 3.2920492 0.40342256 54
0.49288726 3.2940526 0.28747508 54
0.49317184 3.2920287 0.17187266 65
0.49359727 3.2909482 0.05684429 63
0.30113897 1.9959005 -0.53023344 37
0.29606637 1.9599612 -0.44843808 39
0.28756216 1.9014162 -0.36602432 7
0.35100007 2.3181431 -0.36487198 4
0.49666226 3.2762911 -0.40159714 81
0.49828285 3.2831142 -0.28717816 80
0.49931547 3.2860522 -0.17161186 81
0.50048727 3.2898977 -0.057418413 84
0.50100607 3.2894466 0.88070476 55
0.50150484 3.2888651 0.75863582 39
0.50132769 3.2838576 0.63768297 65
0.50272256 3.2891457 0.52035272 46
0.50348842 3.2903113 0.40342256 52
0.50513697 3.2972357 0.28790998 54
0.50466013 3.2902873 0.17187266 59
0.50508183 3.2892051 0.05684429 61
0.30810413 1.9948372 -0.53023344 36
0.3029061 1.9589158 -0.44843808 37
0.29419759 1.9004008 -0.36602432 6
0.35833335 2.3120236 -0.36409065 4
0.50885659 3.2794414 -0.40220562 78
0.5105046 3.2862768 -0.28761396 80
0.51078284 3.2842889 -0.17161186 81
0.51273721 3.2930698 -0.057505675 86
0.51322919 3.29245 0.881998 58
0.51298207 3.2870944 0.75863582 38
0.51354516 3.2869368 0.63863617 71
0.51420069 3.2873709 0.52035272 41
0.51573849 3.293437 0.40403107 49
0.5166434 3.2954524 0.28790998 56
0.51691651 3.2934384 0.17213348 59
0.5165602 3.2874222 0.05684429 51
0.31506553 1.9937496 -0.53023344 39
0.30974215 1.9578464 -0.44843808 39
0.30082941 1.8993623 -0.36602432 6
0.36640167 2.3107588 -0.36409065 5
0.52030092 3.2776451 -0.40220562 80
0.52197272 3.2844748 -0.28761396 82
0.52302867 3.2874172 -0.17187266 79
0.52422905 3.29126 -0.057505675 88
0.52471888 3.2906384 0.881998 55
0.52522105 3.2900946 0.75975972 39
0.52501553 3.2851241 0.63863617 66
0.52645296 3.2904329 0.52113408 44
0.52723163 3.2916169 0.40403107 54
0.52893209 3.2985468 0.28834489 61
0.52840966 3.2916138 0.17213348 57
0.52882558 3.290535 0.05693068 57
0.32202309 1.9926378 -0.53023344 41
0.31657442 1.9567534 -0.44843808 40
0.30745763 1.8983005 -0.36602432 6
0.3744655 2.3094656 -0.36409065 4
0.53173876 3.2758088 -0.40220562 78
0.53423351 3.2875495 -0.28804973 82
0.53450066 3.2855716 -0.17187266 81
0.5365181 3.2943444 -0.05759294 86
0.53620219 3.2887864 0.881998 55
0.53670239 3.2882414 0.75975972 38
0.53727114 3.2881155 0.63958937 66
0.5379355 3.2885749 0.52113408 52
0.53871828 3.2897565 0.40403107 52
0.54044288 3.2966805 0.28834489 62
0.54070497 3.2946763 0.17239428 59
0.54030842 3.2886689 0.05693068 59
0.32897675 1.9915015 -0.53023344 41
0.32419774 1.9604431 -0.44956198 38
0.31408206 1.8972158 -0.36602432 6
0.38252473 2.3081443 -0.36409065 4
0.54398257 3.2788291 -0.40281412 77
0.54570591 3.2856643 -0.28804973 82
0.54596621 3.2836859 -0.17187266 82
0.54801422 3.2924516 -0.05759294 90
0.5484727 3.2916591 0.8832913 53
0.54817724 3.2863479 0.75975972 39
0.54955393 3.2910614 0.64054251 66
0.55022568 3.2915483 0.52191538 50
0.55101746 3.2927506 0.40463954 60
0.55194718 3.2947738 0.28834489 54
0.55220222 3.292769 0.17239428 65
0.55261248 3.291693 0.057017069 61
0.33592638 1.9903411 -0.53023344 39
0.33103898 1.9592996 -0.44956198 34
0.32070264 1.8961078 -0.36602432 5
0.39057934 2.3067951 -0.36409065 5
0.55542451 3.2769101 -0.40281412 75
0.5571717 3.2837393 -0.28804973 80
0.55826122 3.2866826 -0.17213348 84
0.55950361 3.2905188 -0.05759294 88
0.55995941 3.2897243 0.8832913 55
0.56046379 3.2892172 0.76088363 40
0.56103855 3.2891231 0.64054251 66
0.56171197 3.2896073 0.52191538 49
0.56250793 3.2908072 0.40463954 58
0.56428492 3.2977371 0.2887798 67
0.5645358 3.295743 0.17265509 65
0.56467342 3.2896459 0.057017069 61
0.3432191 1.9890964 -0.53023344 34
0.33904722 1.9628739 -0.45068586 31
0.32765007 1.8949198 -0.36602432 5
0.39903152 2.3053482 -0.36409065 4
0.56827855 3.2797425 -0.40342256 77
0.57005471 3.2865832 -0.2884855 78
0.5703038 3.2846146 -0.17213348 82
0.57241631 3.2933712 -0.057680197 86
0.57284099 3.2924085 0.88458449 52
0.57251561 3.2871408 0.76088363 41
0.57393295 3.2918799 0.64149576 65
0.57461441 3.2923918 0.52269667 52
0.57541972 3.293612 0.40524802 64
0.57636786 3.2956469 0.2887798 62
0.57661152 3.2936518 0.17265509 60
0.57701594 3.2925787 0.057103459 61
0.35016024 1.9878862 -0.53023344 29
0.34674287 1.9664766 -0.45180979 28
0.33426261 1.8937645 -0.36602432 5
0.40707627 2.303941 -0.36409065 5
0.57972354 3.2777388 -0.40342256 79
0.58152354 3.2845731 -0.2884855 82
0.58263701 3.2875199 -0.17239428 82
0.58390886 3.291353 -0.057680197 88
0.58433014 3.2903888 0.88458449 53
0.58483911 3.2899194 0.76200753 40
0.58542031 3.2898567 0.64149576 66
0.5861035 3.2903662 0.52269667 49
0.58778423 3.2964694 0.40585652 62
0.58786833 3.2936146 0.2887798 62
0.58898318 3.2965341 0.17291589 63
0.58938581 3.2954655 0.057189848 65
0.35709712 1.9866519 -0.53023344 23
0.35360506 1.9652542 -0.45180979 24
0.34087101 1.8925861 -0.36602432 4
0.41511604 2.3025062 -0.36409065 5
0.59116143 3.2756951 -0.40342256 81
0.59298527 3.2825234 -0.2884855 80
0.59410906 3.2854662 -0.17239428 81
0.59628475 3.2942142 -0.057767462 88
0.59667331 3.2930815 0.88587779 54
0.5963195 3.2878578 0.76200753 39
0.59777725 3.2926223 0.6424489 62
0.59846836 3.293159 0.52347797 44
0.60017568 3.2992802 0.40646499 64
0.60025394 3.296443 0.2892147 58
0.60048664 3.2944582 0.17291589 65
0.60088551 3.2933884 0.057189848 61
0.36490074 1.990144 -0.53152668 18
0.3613424 1.9687998 -0.45293367 25
0.34836221 1.8962122 -0.36697748 4
0.42136437 2.2913287 -0.36252803 4
0.60349059 3.2784925 -0.40403107 79
0.60534239 3.2853317 -0.28892127 80
0.60557389 3.2833724 -0.17239428 83
0.60778004 3.2921126 -0.057767462 88
0.60816467 3.2909789 0.88587779 55
0.60867882 3.2905469 0.76313144 38
0.61016065 3.295342 0.6434021 67
0.60996002 3.2910497 0.52347797 44
0.61168861 3.2971649 0.40646499 65
0.61175704 3.2943275 0.2892147 57
0.61289531 3.2972512 0.17317671 66
0.6132924 3.2961855 0.057276234 63
0.37450826 2.0031009 -0.53540641 13
0.36821258 1.9675266 -0.45293367 27
0.3549791 1.8949847 -0.36697748 4
0.43391079 2.3141139 -0.3664346 4
0.61493099 3.276366 -0.40403107 77
0.61680663 3.2831988 -0.28892127 78
0.61795413 3.2861462 -0.17265509 81
0.62019271 3.294884 -0.057854723 88
0.62054282 3.293582 0.88717103 57
0.62016124 3.2884021 0.76313144 43
0.62165976 3.2931921 0.6434021 66
0.62236118 3.2937534 0.52425927 49
0.62411654 3.299886 0.40707347 65
0.62417924 3.2970662 0.28964964 58
0.62533075 3.2999973 0.17343751 64
0.62479454 3.2940247 0.057276234 59
0.38511491 2.0207591 -0.54057944 13
0.37599126 1.9710151 -0.4540576 24
0.36159164 1.893734 -0.36697748 4
0.44384012 2.3222868 -0.3679972 4
0.62729639 3.279074 -0.40463954 79
0.62920016 3.2859178 -0.28935707 84
0.62942117 3.2839689 -0.17265509 82
0.63169026 3.2926991 -0.057854723 84
0.63203579 3.2913959 0.88717103 57
0.63255572 3.2910016 0.76425534 40
0.63407868 3.2958217 0.6443553 62
0.63385469 3.2915606 0.52425927 50
0.63563144 3.2976873 0.40707347 70
0.63568431 3.2948675 0.28964964 58
0.63684607 3.2977946 0.17343751 62
0.636289 3.2918239 0.057276234 57
0.39308709 2.0241439 -0.54187268 7
0.38379866 1.974473 -0.45518148 22
0.3691372 1.8972782 -0.36793068 3
0.47743216 2.4516063 -0.38909259 4
0.63873863 3.2768641 -0.40463954 77
0.64066631 3.2837014 -0.28935707 82
0.64183748 3.2866521 -0.17291589 81
0.64413905 3.2953801 -0.057941984 88
0.64352107 3.2891695 0.88717103 59
0.64403957 3.2887735 0.76425534 40
0.6455794 3.2935882 0.6443553 60
0.64629132 3.2941744 0.52504057 44
0.64713866 3.2954485 0.40707347 67
0.6481424 3.2975161 0.29008454 66
0.64931756 3.300451 0.17369832 67
0.64874166 3.2944877 0.057362627 57
0.39921296 2.0180211 -0.54057944 4
0.39068854 1.9731213 -0.45518148 21
0.37671188 1.900793 -0.36888388 3
0.5157758 2.6000948 -0.41331321 5
0.65113968 3.2794824 -0.40524802 77
0.65212464 3.2814453 -0.28935707 80
0.65330613 3.2843916 -0.17291589 83
0.65563816 3.2931118 -0.057941984 86
0.65594244 3.29164 0.88846427 63
0.65646869 3.2912834 0.76537925 40
0.65803313 3.2961283 0.64530849 57
0.65778619 3.2918983 0.52504057 50
0.65961123 3.2980361 0.40768194 68
0.6596489 3.2952332 0.29008454 58
0.66083431 3.2981644 0.17369832 67
0.66081214 3.292088 0.057362627 65
0.40851602 2.0260136 -0.54316592 3
0.39888161 1.976452 -0.45630541 21
0.38659164 1.9138328 -0.37174344 3
0.55759871 2.7579274 -0.43909645 5
0.6631552 3.2770741 -0.40524802 77
0.66513616 3.2839146 -0.28979284 80
0.66633177 3.2868693 -0.17317671 82
0.66770363 3.2906866 -0.057941984 84
0.66800255 3.2892139 0.88846427 56
0.66852742 3.2888553 0.76537925 39
0.67010969 3.293694 0.64530849 63
0.66984719 3.2894652 0.52504057 49
0.6716947 3.2955961 0.40768194 65
0.67271763 3.2976742 0.29051945 60
0.67291826 3.2957199 0.17369832 65
0.67330062 3.2946589 0.057449013 64
nan nan nan 0
0.40675876 1.9798199 -0.45742929 20
0.3962357 1.9268948 -0.374603 3
0.5891248 2.8623822 -0.45628527 6
0.67559159 3.2795999 -0.40585652 79
0.67659509 3.2815728 -0.28979284 82
0.67780101 3.284523 -0.17317671 80
0.68019736 3.2932317 -0.058029246 84
0.68045771 3.2915916 0.88975751 55
0.68099076 3.2912724 0.76650316 39
0.68259799 3.2961414 0.64626163 58
0.68232781 3.2919428 0.52582192 46
0.68420255 3.2980909 0.40829045 71
0.68422461 3.2953057 0.29051945 58
0.68543434 3.2982397 0.17395914 62
0.68479711 3.2922885 0.057449013 60
nan nan nan 0
0.41466433 1.9831569 -0.45855322 20
0.40899181 1.9543253 -0.38032213 3
0.61024976 2.9134793 -0.46487969 8
0.68703538 3.2772217 -0.40585652 79
0.68906868 3.2840662 -0.29022864 80
0.69028819 3.2870235 -0.17343751 82
0.69168878 3.2908373 -0.058029246 84
0.69194341 3.2891965 0.88975751 51
0.6924752 3.2888753 0.76650316 39
0.69409955 3.2937384 0.64626163 60
0.69381469 3.2895412 0.52582192 50
0.69571084 3.2956827 0.40829045 69
0.69675291 3.2977707 0.29095435 50
0.6969431 3.2958269 0.17395914 66
0.69732022 3.294769 0.057535406 58
nan nan nan 0
0.42158431 1.9816974 -0.45855322 20
0.4219442 1.9816897 -0.38604125 3
0.62247455 2.9209914 -0.46644232 10
0.69950604 3.2796571 -0.40646499 77
0.70052809 3.2816408 -0.29022864 78
0.70175779 3.2845938 -0.17343751 80
0.70421714 3.2932916 -0.058116511 84
0.70342058 3.286761 0.88975751 56
0.70497185 3.2912023 0.76762706 38
0.70662153 3.2960951 0.64721489 62
0.70632911 3.2919278 0.52660322 49
0.70825267 3.2980862 0.40889892 68
0.70826 3.2953186 0.29095435 52
0.70844346 3.2933741 0.17395914 65
0.70881689 3.2923148 0.057535406 62
nan nan nan 0
0.42952952 1.9849756 -0.4596771 18
nan nan nan 0
0.62952852 2.9043214 -0.46409839 16
0.71094996 3.2771952 -0.40646499 79
0.7130357 3.2840431 -0.2906644 80
0.71427923 3.2870038 -0.17369832 80
0.71570855 3.2908134 -0.058116511 88
0.71591651 3.2890048 0.89105082 57
0.71645594 3.2887213 0.76762706 39
0.71812278 3.2936087 0.64721489 57
0.71781576 3.2894421 0.52660322 52
0.71976084 3.295594 0.40889892 68
0.72082216 3.2976923 0.29138926 53
0.72100228 3.295759 0.17421994 66
0.72137415 3.2947044 0.057621799 62
nan nan nan 0
0.4375028 1.9882222 -0.46080104 20
0.51177615 2.3238232 -0.45467082 16
0.62903243 2.853878 -0.45628527 9
0.72345424 3.2795403 -0.40707347 77
0.72449481 3.2815342 -0.2906644 80
0.72574872 3.2844903 -0.17369832 82
0.72827077 3.2931764 -0.058203775 84
0.72843665 3.2912016 0.892344 50
0.72898501 3.290957 0.76875097 36
0.73067755 3.2958732 0.64816803 56
0.73036349 3.2917378 0.52738452 43
0.73233604 3.2979062 0.40950739 63
0.73232889 3.295156 0.29138926 59
0.73250228 3.2932222 0.17421994 65
0.7328704 3.2921662 0.057621799 60
nan nan nan 0
0.44444036 1.986683 -0.46080104 20
0.51452267 2.2980738 -0.44990486 14
0.64438975 2.8757603 -0.46019182 10
0.73489761 3.2769949 -0.40707347 79
0.73703587 3.2838452 -0.29110017 80
0.7383036 3.2868092 -0.17395914 80
0.73976177 3.2906144 -0.058203775 84
0.73992062 3.2886386 0.892344 49
0.74153847 3.2931454 0.76987487 35
0.74217784 3.2933028 0.64816803 56
0.74184936 3.2891684 0.52738452 41
0.74384344 3.2953298 0.40950739 64
0.74492419 3.2974384 0.29182416 53
0.74509448 3.2955155 0.17448075 66
0.74435776 3.289588 0.057621799 61
nan nan nan 0
0.45353287 1.9946209 -0.46304882 21
0.52145225 2.2914782 -0.44895169 12
0.65771413 2.8879395 -0.46253577 11
0.74743485 3.279248 -0.40768194 81
0.74849415 3.2812524 -0.29110017 76
0.75088358 3.2890799 -0.17421994 80
0.75235707 3.2928855 -0.058291033 83
0.75247228 3.2907448 0.8936373 56
0.75302917 3.2905371 0.76987487 39
0.75476485 3.2954764 0.64912122 57
0.75442952 3.2913723 0.52816582 53
0.75645137 3.2975502 0.41011587 63
0.75754446 3.2996726 0.29225907 55
0.75771153 3.297761 0.17474155 68
0.75695634 3.2918417 0.057708185 60
nan nan nan 0
0.45829904 1.9835318 -0.46080104 10
0.53497684 2.3135545 -0.45371762 25
0.67113125 2.9000602 -0.46487969 12
0.75887698 3.2766192 -0.40768194 77
0.76106799 3.2834723 -0.29153597 80
0.76235998 3.2864387 -0.17421994 81
0.76384681 3.2902393 -0.058291033 86
0.76504755 3.2928026 0.8949306 48
0.76561415 3.2926338 0.77099878 41
0.76626366 3.2928216 0.64912122 58
0.76591396 3.2887189 0.52816582 44
0.76795739 3.2948897 0.41011587 63
0.76905787 3.2970083 0.29225907 57
0.77035338 3.2999585 0.17500237 68
0.76844239 3.2891793 0.057708185 57
nan nan nan 0
0.47412699 2.019865 -0.46979225 7
0.53968191 2.2973385 -0.45085809 17
0.684641 2.9121222 -0.46722364 13
0.77144659 3.2787817 -0.40829045 79
0.77366638 3.2856436 -0.29197174 78
0.7749725 3.2886176 -0.17448075 82
0.77647477 3.2924185 -0.058378298 83
0.77653688 3.2901118 0.8949306 55
0.77822286 3.294683 0.77212268 39
0.77888221 3.2949035 0.65007442 55
0.77852607 3.2908316 0.52894717 55
0.78059739 3.2970183 0.41072437 59
0.78171027 3.2991505 0.292694 58
0.78186762 3.2972493 0.17500237 69
0.78107339 3.2913413 0.057794575 61
0.2696633 1.1319281 -0.30132776 11
0.47326538 1.9850234 -0.46192494 2
0.54883695 2.3002148 -0.45181125 17
0.69480205 2.9097149 -0.46722364 13
0.78288698 3.2760689 -0.40829045 75
0.78628939 3.2877679 -0.29240751 78
0.78760946 3.2907484 -0.17474155 79
0.78912723 3.2945499 -0.058465559 88
0.78914267 3.2920775 0.89622378 59
0.78971875 3.2919464 0.77212268 39
0.79037881 3.2921646 0.65007442 68
0.79116213 3.2928956 0.52972847 48
0.79210132 3.2942734 0.41072437 60
0.79322171 3.2964017 0.292694 55
0.79454142 3.2993541 0.17526317 66
0.79255766 3.2885947 0.057794575 59
0.27247712 1.1262854 -0.30003452 17
0.48477733 2.0023003 -0.46642056 2
0.55686289 2.298285 -0.45181125 31
0.70495462 2.9072719 -0.46722364 13
0.79431784 3.2733159 -0.40829045 65
0.79776108 3.2850032 -0.29240751 76
0.79909146 3.2879791 -0.17474155 77
0.80180401 3.296633 -0.05855282 83
0.80177164 3.2939961 0.89751709 54
0.80235803 3.2939031 0.77324659 40
0.80302829 3.2941544 0.65102762 61
0.8026517 3.2901139 0.52972847 49
0.80477273 3.2963092 0.41133282 60
0.8059057 3.2984517 0.29312888 56
0.80605346 3.2965605 0.17526317 68
0.80522037 3.290664 0.057880964 59
0.27179858 1.1065656 -0.29486153 17
nan nan nan 0
0.56605446 2.3010933 -0.45276445 34
0.71391797 2.8999977 -0.46644232 12
0.80573899 3.2705233 -0.40829045 44
0.81041527 3.2870345 -0.29284328 80
0.81175989 3.2900176 -0.17500237 79
0.81330657 3.2938139 -0.05855282 84
0.81326503 3.2911775 0.89751709 53
0.81385094 3.2910824 0.77324659 39
0.81452209 3.2913311 0.65102762 61
0.8153187 3.2920856 0.53050977 42
0.81627411 3.2934804 0.41133282 57
0.81741452 3.2956183 0.29312888 59
0.81875867 3.298573 0.17552398 66
0.81670201 3.2878332 0.057880964 61
0.2744911 1.1009238 -0.29356825 19
0.591923 2.3723094 -0.55520904 21
0.57408333 2.2991033 -0.45276445 33
0.72403651 2.8974879 -0.46644232 12
0.81715035 3.2676907 -0.40829045 35
0.82309341 3.2890177 -0.29327908 76
0.82445222 3.2920074 -0.17526317 80
0.82601452 3.2958043 -0.058640081 84
0.82592326 3.2930031 0.89881027 54
0.82652014 3.2929468 0.77437049 39
0.82720178 3.2932281 0.65198076 61
0.82680517 3.2892199 0.53050977 45
0.82897627 3.295424 0.41194132 59
0.83012944 3.2975752 0.29356381 60
0.83026785 3.2956951 0.17552398 65
0.82939595 3.2898099 0.057967354 59
0.27833238 1.0999589 -0.29356825 17
0.59302443 2.3418908 -0.54846561 5
0.58089954 2.2923272 -0.45181125 34
0.73414618 2.894943 -0.46644232 13
0.82855171 3.2648187 -0.40829045 35
0.83456928 3.2861242 -0.29327908 78
0.83716851 3.2939489 -0.17552398 81
0.83751392 3.2929008 -0.058640081 84
0.83860439 3.294781 0.90010357 50
0.83800966 3.2900417 0.77437049 37
0.83990461 3.2950771 0.65293401 60
0.83950239 3.2910988 0.53129107 50
0.84047437 3.29251 0.41194132 57
0.84163505 3.2946572 0.29356381 62
0.84300351 3.2976143 0.17578478 62
0.84211344 3.2917383 0.058053743 63
0.28217027 1.0989807 -0.29356825 19
0.6230197 2.4247446 -0.5686959 7
0.58889765 2.2902858 -0.45181125 30
0.7454778 2.8971457 -0.46722364 13
0.84118056 3.2667124 -0.40889892 24
0.84727782 3.2880144 -0.29371485 72
0.84866142 3.2910068 -0.17552398 81
0.85025245 3.2947979 -0.058727346 84
0.85010028 3.2918334 0.90010357 54
0.85070795 3.2918134 0.7754944 39
0.85263038 3.2968769 0.65388715 60
0.85098535 3.2881486 0.53129107 40
0.85320652 3.2943604 0.41254979 56
0.85438007 3.2965212 0.29399872 57
0.85450923 3.2946515 0.17578478 62
0.85485458 3.2936177 0.058140133 61
0.28600469 1.097989 -0.29356825 18
0.62287736 2.3895535 -0.56082857 4
0.59317201 2.2739685 -0.44895169 4
0.75558615 2.8945258 -0.46722364 13
0.85383278 3.2685578 -0.40950739 75
0.86000967 3.2898557 -0.29415065 80
0.86140764 3.2928545 -0.17578478 80
0.86174828 3.29181 -0.058727346 83
0.86280966 3.2935181 0.90139681 48
0.86342889 3.2935369 0.7766183 41
0.86413348 3.2938807 0.65388715 58
0.86371195 3.2899349 0.53207237 55
0.86470079 3.2913623 0.41254979 62
0.86588198 3.2935188 0.29399872 66
0.86727494 3.2964778 0.1760456 65
0.86634624 3.2906137 0.058140133 72
0.28983566 1.0969839 -0.29356825 20
0.62623322 2.3685238 -0.55633295 2
0.59985054 2.2671385 -0.44799849 2
0.7669493 2.8966446 -0.46800491 13
0.86777902 3.2751522 -0.41072437 75
0.87148815 3.286834 -0.29415065 80
0.87289655 3.2898278 -0.17578478 82
0.87451637 3.2936134 -0.058814604 83
0.87554115 3.2951541 0.90269005 56
0.87617213 3.2952116 0.77774227 39
0.8768881 3.2955878 0.65484035 65
0.87519073 3.2868998 0.53207237 47
