# .PCD v0.7 - Point Cloud Data file format
VERSION 0.7
FIELDS x y z intensity
SIZE 4 4 4 4
TYPE F F F F
COUNT 1 1 1 1
WIDTH 1425
HEIGHT 1
VIEWPOINT 0 0 0 1 0 0 0
POINTS 1425
DATA ascii
1.797362 3.3061993 0.19456299 49
1.7982873 3.3051519 0.064360179 51
nan nan nan 0
nan nan nan 0
0.46032256 0.8435905 -0.1791994 19
0.45846438 0.8398366 -0.14532374 24
0.46553111 0.85242796 -0.11439434 9
nan nan nan 0
0.45419696 0.83098453 -0.047467109 2
1.7956064 3.283823 -0.06466116 11
1.8101174 3.3089886 0.99968398 46
1.8076404 3.3030915 0.85978723 36
1.809751 3.3055778 0.72442311 45
1.8095192 3.3037853 0.58988935 38
1.8141273 3.3108273 0.45818582 39
1.8141143 3.3094327 0.32618201 56
1.8142694 3.3083458 0.1950846 52
1.8122182 3.3032374 0.064446568 49
nan nan nan 0
nan nan nan 0
0.45853227 0.83337784 -0.17729303 26
0.45663026 0.82957816 -0.14376111 26
0.47089767 0.85514498 -0.11500282 12
nan nan nan 0
nan nan nan 0
1.8118857 3.2862909 -0.064835683 8
1.8239896 3.3068793 1.0009773 45
1.823867 3.3052926 0.86203504 35
1.8260227 3.3078344 0.72632951 46
1.8258154 3.3060951 0.59145194 39
1.8280733 3.3088186 0.45879433 40
1.8280649 3.3074396 0.32661691 56
1.8282228 3.3063619 0.19534542 50
1.8285774 3.3056407 0.064619347 51
nan nan nan 0
nan nan nan 0
0.4566763 0.82318807 -0.17538664 27
0.45712671 0.82366103 -0.1429798 31
0.47147077 0.84915715 -0.11439434 11
nan nan nan 0
nan nan nan 0
1.828204 3.2886853 -0.065010212 6
1.8402165 3.308934 1.0035638 45
1.8377624 3.3031638 0.863159 36
1.8399451 3.3057287 0.72728264 51
1.84215 3.3083313 0.5930146 36
1.8444424 3.3110883 0.46001127 42
1.8444484 3.3097403 0.32748672 53
1.8446158 3.3086827 0.19586703 50
1.8425401 3.3036036 0.064705737 51
nan nan nan 0
nan nan nan 0
0.45475486 0.81302148 -0.17348027 35
0.45999902 0.82206035 -0.1429798 34
0.47200781 0.84317577 -0.11378586 12
nan nan nan 0
nan nan nan 0
1.8445611 3.2910056 -0.065184735 3
1.854118 3.3067033 1.0048569 39
1.8540485 3.3052268 0.86540681 34
1.8562771 3.307847 0.72918904 46
1.8561045 3.3061869 0.5937959 38
1.8608494 3.3132844 0.46122825 43
1.8584301 3.3076246 0.32792166 51
1.8586007 3.3065763 0.19612785 42
1.8589612 3.3058667 0.064878516 47
0.50008881 0.88751465 -0.26253021 2
nan nan nan 0
0.45759007 0.81142914 -0.17348027 38
0.46286577 0.82044965 -0.1429798 35
0.47494814 0.84152299 -0.11378586 13
nan nan nan 0
nan nan nan 0
1.858497 3.2888992 -0.065271996 2
1.8704029 3.30862 1.0074435 38
1.867973 3.3029759 0.86653072 35
1.8702295 3.3056195 0.73014224 47
1.8724992 3.3082836 0.59535855 38
1.8748488 3.3110867 0.4618367 45
1.8748747 3.3097854 0.32879147 48
1.8750551 3.3087568 0.19664946 47
1.8729552 3.3037066 0.064964905 53
0.51034081 0.89836228 -0.26640996 3
nan nan nan 0
0.45799381 0.80555999 -0.17252707 47
0.46572682 0.81882894 -0.1429798 37
0.47542837 0.83554655 -0.11317738 14
0.47477892 0.83406645 -0.08061906 21
0.47357222 0.83160895 -0.047988724 2
1.8773899 3.295423 -0.06553378 15
1.8843322 3.306267 1.0087367 49
1.8843173 3.3048999 0.86877853 35
1.8866204 3.3075976 0.73204863 53
1.8864834 3.3060169 0.59613985 38
1.8913159 3.3131423 0.46305367 40
1.8888868 3.3075459 0.32922637 43
1.8890704 3.3065271 0.19691026 50
1.8894373 3.3058295 0.065137684 45
0.51827419 0.90495771 -0.26899645 3
nan nan nan 0
0.46080291 0.80395639 -0.17252707 52
0.4661257 0.81291407 -0.14219849 40
0.47834209 0.83388191 -0.11317738 14
0.45785397 0.79784286 -0.077132836 26
nan nan nan 0
1.8938613 3.2975199 -0.065708302 17
1.9006741 3.3080451 1.0113232 40
1.9006979 3.3067505 0.87102634 37
1.9030482 3.3095021 0.73395497 43
1.9029372 3.3079729 0.59770244 38
1.905345 3.3108215 0.46366215 39
1.9053913 3.3095658 0.33009619 43
1.9055848 3.3085663 0.19743188 50
1.9059571 3.3078773 0.065310463 47
0.51901495 0.89896029 -0.26770321 2
0.48942536 0.847368 -0.21691366 2
0.4611508 0.79809314 -0.17157389 55
0.4689604 0.81128198 -0.14219849 39
0.48124993 0.83220708 -0.11317738 15
0.46063617 0.79623979 -0.077132836 29
0.49437317 0.85421234 -0.049553577 6
1.9103701 3.299542 -0.065882832 14
1.9146305 3.3055696 1.0126165 39
1.9171145 3.3085268 0.87327415 38
1.919512 3.3113317 0.73586136 48
1.91695 3.3055828 0.5984838 38
1.9218711 3.3127358 0.46487913 43
1.9194325 3.3072026 0.33053109 38
1.9196295 3.3062129 0.19769269 50
1.9225137 3.30985 0.065483242 51
1.9409856 3.3349471 -1.0229626 8
0.46541408 0.79934049 -0.2045507 2
0.46393389 0.79647857 -0.17157389 60
0.47178945 0.80964011 -0.14219849 47
0.48165253 0.82623458 -0.11256889 15
0.46341279 0.79462701 -0.077132836 38
0.48728713 0.83522999 -0.048510343 17
1.924396 3.2971714 -0.065970093 16
1.9310281 3.3072083 1.015203 41
1.9311091 3.3060215 0.87439805 38
1.9335353 3.3088491 0.73681456 52
1.9309695 3.3031344 0.59926504 39
1.9359285 3.3102913 0.4654876 42
1.9359957 3.3090811 0.33140093 39
1.9336809 3.3038013 0.19795349 42
1.9365819 3.3074331 0.065569632 53
1.9232861 3.2781615 -1.0074435 37
0.48299837 0.82292169 -0.21129413 2
0.46671128 0.79485428 -0.17157389 53
0.47211143 0.80373001 -0.14141718 47
0.4845337 0.8245483 -0.11256889 17
0.46365941 0.78871059 -0.076697052 38
0.47248101 0.80339563 -0.046684686 17
1.9409637 3.2990513 -0.066144615 17
1.9450104 3.3046098 1.0164962 39
1.9475815 3.307657 0.87664586 36
1.950056 3.3105381 0.73872095 46
1.9475024 3.3048837 0.60082769 38
1.9525121 3.3120639 0.46670455 42
1.9525956 3.3108838 0.33227074 39
1.9502759 3.3056319 0.19847511 42
1.9537746 3.3089228 0.065742411 49
1.9475846 3.2918744 -1.0139097 7
0.46615896 0.78760421 -0.20230289 2
0.46712071 0.78891492 -0.17062071 52
0.47505409 0.8019942 -0.14141718 50
0.4850226 0.81849736 -0.11196041 14
0.4665471 0.7870059 -0.076697052 39
0.4805164 0.81024796 -0.047206301 35
1.9581441 3.3005142 -0.066319138 17
1.9620397 3.3057656 1.0190828 39
1.9621789 3.3046858 0.87776977 35
1.9671898 3.3118086 0.74062735 52
1.9621251 3.3019691 0.60160899 39
1.9671744 3.3091512 0.46731305 54
1.9698094 3.3122675 0.33314055 39
1.9649317 3.302753 0.19873592 45
1.96787 3.3063786 0.0658288 49
nan nan nan 0
nan nan nan 0
0.46987167 0.78727955 -0.17062071 51
0.47785065 0.80033112 -0.14141718 49
0.48533177 0.81253862 -0.11135194 12
0.46929139 0.78537261 -0.076697052 43
0.48590377 0.81285155 -0.047467109 35
1.9747845 3.3022399 -0.066493668 16
1.9785262 3.3071861 1.0216693 39
1.9787066 3.3061776 0.88001758 36
1.9812595 3.3091326 0.74158049 53
1.9787143 3.3035731 0.60317165 38
1.9838153 3.3107786 0.46853 43
1.9839203 3.3096437 0.33357546 40
1.9815843 3.3044386 0.19925754 45
1.984543 3.3080633 0.066001579 55
1.9555891 3.2533605 -1.0061502 39
nan nan nan 0
0.47261694 0.78563464 -0.17062071 44
0.483188 0.80288965 -0.14219849 44
0.48816508 0.81083953 -0.11135194 10
0.47203001 0.78372961 -0.076697052 41
0.49131504 0.81542724 -0.047727916 36
1.9888802 3.299608 -0.066580921 16
1.9950465 3.3085318 1.0242558 43
1.9927516 3.3034222 0.88114142 36
1.9978704 3.3106012 0.74348688 44
1.9953388 3.3051019 0.60473424 38
1.9979258 3.3080816 0.4691385 39
2.0006127 3.3112249 0.3344453 40
1.9956895 3.3017745 0.19951834 52
1.998665 3.3053937 0.066087961 51
nan nan nan 0
nan nan nan 0
0.47535643 0.78398001 -0.17062071 40
0.48598766 0.80119807 -0.14219849 40
0.48841792 0.80488783 -0.11074346 9
0.47734761 0.78633499 -0.077132836 40
0.49415842 0.81370729 -0.047727916 35
2.0055773 3.3011906 -0.066755451 18
2.0090916 3.3056748 1.0255491 45
2.0093327 3.3047719 0.88338923 37
2.0119653 3.307801 0.74444008 45
2.0119979 3.3065548 0.6062969 39
2.014622 3.3095663 0.47035545 44
2.0147498 3.3084757 0.3348802 40
2.0123985 3.3033166 0.20003995 45
2.0153942 3.3069346 0.06626074 51
1.8926718 3.0994778 -0.96217966 30
nan nan nan 0
0.47809014 0.78231597 -0.17062071 37
0.48878136 0.79949677 -0.14219849 36
0.49122456 0.80317807 -0.11074346 8
0.48008949 0.78466398 -0.077132836 39
0.4996025 0.8162362 -0.047988724 35
2.0196991 3.2984331 -0.066842712 17
2.0256641 3.306879 1.0281355 45
2.0234022 3.301892 0.8845132 37
2.02863 3.3091266 0.74634641 54
2.0286913 3.3079312 0.60785949 38
2.0287573 3.3067436 0.47096393 40
2.0314972 3.3099132 0.33575001 48
2.0291421 3.3047824 0.20056158 45
2.029542 3.3041396 0.066347137 49
1.8984165 3.0846255 -0.95959312 70
nan nan nan 0
0.48081803 0.78064233 -0.17062071 36
0.49156919 0.79778582 -0.14219849 34
0.49402514 0.80145848 -0.11074346 8
0.48543999 0.78722304 -0.077568613 36
0.50244862 0.81448728 -0.047988724 35
2.0364513 3.2998714 -0.067017235 18
2.0422697 3.3080075 1.030722 39
2.0400357 3.3030992 0.88676101 37
2.0427485 3.306201 0.74729961 40
2.0428226 3.3050306 0.60864079 37
2.0455079 3.308084 0.47218087 39
2.0482795 3.3112743 0.33661982 45
2.0459208 3.3061712 0.2010832 52
2.0463259 3.3055363 0.066519916 55
1.9142642 3.086189 -0.96217966 26
nan nan nan 0
0.48095137 0.77478904 -0.16966751 33
0.49435097 0.79606503 -0.14219849 34
0.49681976 0.79972911 -0.11074346 7
0.48818493 0.78552377 -0.077568613 36
0.50528866 0.81272846 -0.047988724 36
2.0505981 3.2969882 -0.067104504 18
2.0589075 3.3090603 1.0333085 40
2.0567024 3.3042305 0.88900882 35
2.0594659 3.3073835 0.74920601 48
2.0595691 3.3062634 0.61020344 38
2.0622923 3.3093474 0.47339785 40
2.0650959 3.3125577 0.33748963 39
2.0627334 3.3074827 0.20160481 40
2.0631444 3.3068559 0.066692695 51
1.904544 3.0467238 -0.95183361 11
nan nan nan 0
0.48625612 0.77726662 -0.17062071 30
0.49712676 0.79433459 -0.14219849 31
0.50224191 0.80219638 -0.11135194 7
0.49092394 0.78381491 -0.077568613 31
0.50812256 0.81095976 -0.047988724 36
2.0674043 3.2982821 -0.067279026 20
2.0755775 3.3100369 1.0358951 40
2.0734017 3.3052857 0.89125663 36
2.076216 3.3084893 0.75111234 48
2.0763493 3.3074193 0.61176604 38
2.0791104 3.3105338 0.4746148 45
2.0819459 3.3137646 0.33835948 45
2.0795805 3.3087175 0.20212643 56
2.0799968 3.3080983 0.066865474 54
1.9074441 3.0277979 -0.94795388 17
1.9296569 3.0618725 -0.82607013 17
0.49158409 0.77971655 -0.17157389 26
0.50253099 0.79677153 -0.1429798 27
0.50503898 0.80043834 -0.11135194 8
0.49365699 0.78209651 -0.077568613 30
0.51361614 0.81340301 -0.048249532 36
2.0869145 3.303725 -0.06754081 19
2.0922792 3.3109374 1.0384815 39
2.0875301 3.3021462 0.89238054 37
2.0929992 3.3095183 0.75301874 46
2.0931625 3.3084979 0.6133287 38
2.0959618 3.3116434 0.47583175 47
2.0961649 3.3106854 0.33879438 40
2.0937891 3.3056564 0.20238723 44
2.0968831 3.3092635 0.067038253 42
1.9309449 3.0415087 -0.95442015 15
1.929885 3.0386672 -0.82157451 17
0.49956715 0.78628153 -0.17348027 17
0.50530922 0.79501253 -0.1429798 20
0.51581866 0.81123447 -0.11317738 7
0.49638402 0.78036851 -0.077568613 28
0.51645237 0.81160522 -0.048249532 35
2.1038032 3.3048546 -0.067715332 23
2.1090126 3.3117621 1.0410681 40
2.1042798 3.3030574 0.89462835 35
2.1098149 3.3104706 0.75492513 46
2.1100082 3.3095 0.61489129 36
2.1128464 3.3126755 0.47704872 51
2.1130672 3.3117466 0.33966419 40
2.1106882 3.3067455 0.20290884 45
2.1138029 3.3103511 0.067211032 49
1.9597702 3.0632291 -0.9634729 48
1.9483593 3.0442228 -0.82494622 17
1.9897062 3.1076307 -0.70917213 18
0.51074487 0.7974025 -0.14376111 17
0.53203458 0.83032203 -0.11621978 7
0.49910498 0.77863103 -0.077568613 25
0.5219776 0.81400084 -0.048510343 34
2.1234245 3.3101146 -0.067977123 28
2.1257768 3.3125093 1.0436546 41
2.1210608 3.3038914 0.89687616 35
2.1240101 3.3072157 0.75587833 43
2.1268868 3.3104241 0.61645389 37
2.1297636 3.3136296 0.47826567 56
2.130002 3.3127298 0.34053403 43
2.1276207 3.3077564 0.20343047 49
2.1307557 3.3113606 0.067383811 51
1.9861535 3.0807259 -0.97123241 54
1.964255 3.0455918 -0.82719404 14
0.5156883 0.79927218 -0.17729303 6
0.51888162 0.80391353 -0.14532374 15
0.54569793 0.84513676 -0.1186537 8
0.5045225 0.78106809 -0.07800439 23
0.52481574 0.81217378 -0.048510343 34
2.140394 3.311079 -0.068151645 31
2.1425722 3.3131802 1.046241 41
2.1378734 3.3046491 0.89912397 36
2.1408749 3.3080227 0.75778466 45
2.1411135 3.3071256 0.61723518 36
2.1467128 3.3145061 0.47948265 47
2.1469698 3.3136349 0.34140384 40
2.1445851 3.3086896 0.20395209 45
2.1450214 3.3080971 0.0674702 49
2.0074201 3.0899749 -0.97640544 58
1.980184 3.0468869 -0.82944185 14
2.0033267 3.0813191 -0.70631254 34
0.52706993 0.81037736 -0.14688636 14
0.55947101 0.85986614 -0.12108763 9
0.50724578 0.77930224 -0.07800439 24
0.5303722 0.81452125 -0.04877115 35
2.1573958 3.3119652 -0.068326168 21
2.1593981 3.3137741 1.0488275 38
2.154717 3.3053291 0.90137172 33
2.1577713 3.3087525 0.75969106 41
2.158041 3.3079038 0.61879784 38
2.1636944 3.3153048 0.4806996 44
2.1612463 3.3102913 0.34183875 40
2.1615827 3.3095443 0.2044737 39
2.1620247 3.3089597 0.067642979 49
2.0208392 3.0869901 -0.97769868 58
1.9961458 3.0481079 -0.83168966 15
2.0248291 3.0907302 -0.71012527 38
0.53801662 0.82092416 -0.14923029 12
0.5706324 0.87035906 -0.12291307 11
0.51269484 0.78169191 -0.078440167 23
0.53321218 0.81266499 -0.04877115 35
2.1579709 3.2876968 -0.067977123 4
2.1736031 3.3102536 1.0501208 41
2.1742661 3.310004 0.90474349 37
2.1746991 3.3094039 0.76159745 49
2.1750007 3.3086045 0.62036049 39
2.1807075 3.316025 0.48191655 44
2.1782634 3.3110497 0.34270856 43
2.178612 3.3103206 0.20499532 45
2.1790602 3.3097436 0.067815758 49
2.0369215 3.0879805 -0.98028523 55
2.0094571 3.0451882 -0.83281356 14
2.0383098 3.0877397 -0.71107846 39
0.55176473 0.83552533 -0.15235552 17
0.58187371 0.88078427 -0.12473851 11
0.5181666 0.78405297 -0.078875944 17
0.53879935 0.81496388 -0.049031962 36
0.5092327 0.76995051 -0.015445379 7
2.190475 3.3107021 1.0527073 45
2.191185 3.3105195 0.90699124 35
2.1916575 3.3099778 0.76350385 46
2.1919909 3.3092263 0.62192309 38
2.1950107 3.3125298 0.48252505 39
2.1953123 3.3117292 0.34357837 42
2.195673 3.3110185 0.20551693 42
2.1961274 3.3104491 0.067988537 47
2.053035 3.0888965 -0.98287171 58
2.0254695 3.0462694 -0.83506137 15
2.0517938 3.0846925 -0.71203166 40
0.56014955 0.84181726 -0.15391815 12
0.59319466 0.89114159 -0.12656395 12
0.52642184 0.79053122 -0.079747505 13
0.54164088 0.81307817 -0.049031962 35
0.54518539 0.81808954 -0.016492523 20
2.2073767 3.3110731 1.0552938 39
2.2081342 3.3109574 0.90923911 34
2.2086461 3.3104732 0.76541018 43
2.2090118 3.3097703 0.62348574 38
2.2120719 3.3131025 0.48374203 42
2.2123921 3.3123302 0.34444818 39
2.2099912 3.3074856 0.20577775 51
2.2132258 3.3110754 0.068161316 47
2.0691798 3.0897372 -0.9854582 57
2.0415142 3.0472755 -0.83730918 16
2.0707464 3.0897436 -0.71489125 40
0.57133526 0.85216284 -0.15626208 13
0.59906608 0.89318717 -0.12717243 13
0.53195328 0.79282504 -0.080183282 12
0.54447573 0.81118256 -0.049031962 22
0.55918515 0.83278304 -0.016841572 26
2.2243071 3.3113661 1.0578803 39
2.2223952 3.3072729 0.91036296 36
2.2256646 3.3108904 0.76731664 37
2.2260635 3.3102353 0.62504834 37
2.2291634 3.3135962 0.48495898 42
2.226722 3.3087196 0.34488311 42
2.2271001 3.3080354 0.20629936 42
2.2303557 3.3116229 0.068334095 44
2.0853555 3.0905032 -0.98804474 53
2.0575905 3.0482075 -0.83955699 14
2.087013 3.090632 -0.71679759 40
0.5798353 0.85834789 -0.15782471 16
0.60495901 0.89520258 -0.1277809 11
0.53750712 0.79508984 -0.08061906 6
0.54730397 0.809277 -0.049031962 13
0.55928743 0.82668543 -0.016754309 20
2.2412665 3.3115819 1.0604669 40
2.2393894 3.307564 0.91261083 35
2.2427135 3.311229 0.76922292 40
2.243145 3.3106217 0.62661093 38
2.2462854 3.3140106 0.48617592 40
2.2438488 3.3091722 0.34575292 42
2.2442396 3.3085058 0.20682098 51
2.2475162 3.3120906 0.068506874 44
2.098846 3.087199 -0.98933792 52
2.0736978 3.0490639 -0.8418048 15
2.1033106 3.0914445 -0.71870399 40
0.5883854 0.86448407 -0.15938732 15
0.602494 0.8848809 -0.12656395 7
0.54588741 0.80144227 -0.081490621 3
0.55293715 0.81148797 -0.049292769 6
0.56216967 0.82472813 -0.016754309 13
2.2582548 3.3117189 1.0630534 40
2.2564123 3.3077767 0.91485858 35
2.2597916 3.3114889 0.77112937 39
2.2574723 3.3068502 0.62739223 38
2.2634377 3.3143463 0.48739293 45
2.2610059 3.3095453 0.34662274 39
2.2614098 3.3088965 0.20734259 40
2.2647066 3.312479 0.068679653 45
2.1150682 3.0878234 -0.99192441 55
2.0898364 3.0498445 -0.84405261 16
2.1196392 3.0921807 -0.72061038 42
0.59419245 0.86649793 -0.16016863 16
nan nan nan 0
0.55431837 0.8077457 -0.082362175 4
0.55859244 0.81366944 -0.049553577 6
2.2744629 3.3118396 -0.069460578 32
2.2752709 3.3117776 1.0656399 39
2.273464 3.3079104 0.91710645 37
2.2768986 3.3116691 0.77303571 45
2.2745991 3.3070884 0.62895489 37
2.277806 3.3105137 0.48800135 40
2.2781928 3.3098388 0.34749258 45
2.2786098 3.3092074 0.20786421 51
2.2790916 3.3086708 0.068766043 54
2.1285772 3.0843968 -0.99321771 55
2.1032374 3.0465405 -0.84517652 15
2.1359987 3.0928404 -0.72251672 40
0.60563499 0.87660789 -0.16251256 13
nan nan nan 0
0.5656327 0.81809705 -0.083669513 5
0.56426972 0.81582123 -0.049814384 7
2.2916982 3.3121021 -0.069635101 38
2.292315 3.311758 1.0682263 40
2.290544 3.3079653 0.9193542 34
2.2940345 3.3117712 0.7749421 40
2.2917547 3.3072464 0.63051748 37
2.2950029 3.3106999 0.48921835 42
2.2954099 3.3100529 0.34836239 44
2.2958395 3.3094389 0.20838583 52
2.2963276 3.3089094 0.068938822 45
2.1503596 3.0928099 -0.99839073 51
2.1194229 3.0471799 -0.84742433 14
2.1523883 3.0934234 -0.72442311 39
0.61433393 0.8825953 -0.16407518 9
nan nan nan 0
0.57702583 0.82837898 -0.084976844 8
0.5699687 0.81794327 -0.050075192 8
2.3118224 3.3163862 -0.069896884 42
2.3093865 3.3116596 1.0708128 39
2.307652 3.3079414 0.92160207 35
2.3111985 3.3117933 0.77684844 39
2.308939 3.3073258 0.63208014 36
2.3122282 3.310806 0.49043527 40
2.3126552 3.3101864 0.3492322 40
2.3130982 3.3095901 0.20890746 44
2.3135929 3.309068 0.069111601 49
2.1694553 3.0971527 -1.0022705 44
2.1412301 3.055723 -0.85191995 13
2.1659906 3.0899103 -0.72537625 40
nan nan nan 0
2.247905 3.2043858 -0.4752233 7
0.58849764 0.83859134 -0.086284183 11
0.57568932 0.8200354 -0.050336 14
2.3320038 3.3205695 -0.070158668 55
2.3264852 3.3114822 1.0733994 40
2.3247876 3.3078384 0.92384988 36
2.3283908 3.3117363 0.77875489 42
2.3261518 3.3073246 0.63364273 38
2.329483 3.3108327 0.49165228 40
2.3299301 3.3102403 0.35010204 38
2.3303862 3.3096609 0.20942906 44
2.3308873 3.3091459 0.069284372 45
2.2303791 3.1605926 -1.0255491 47
2.1631229 3.0641508 -0.85641557 10
2.1824257 3.0903494 -0.72728264 40
0.61763102 0.87425143 -0.16329387 3
2.2590768 3.1965196 -0.4752233 21
0.60004765 0.84873348 -0.087591521 13
0.57854819 0.81802088 -0.050336 18
2.3464684 3.3164904 -0.070245937 70
2.3464012 3.3151679 1.0772791 47
2.3419507 3.3076556 0.92609763 36
2.3456106 3.3115988 0.78066117 37
2.3462481 3.3112736 0.63598663 39
2.3467653 3.3107789 0.4928692 44
2.3472326 3.3102131 0.35097185 43
2.3477027 3.3096519 0.20995069 40
2.3482108 3.3091438 0.069457158 45
2.3001671 3.2354534 -1.0527073 49
2.1851001 3.0724628 -0.86091119 14
2.1960456 3.0867121 -0.72823584 40
nan nan nan 0
2.2673421 3.1845715 -0.4746148 13
0.60878593 0.85474795 -0.088463083 12
0.5842976 0.82006288 -0.050596807 16
2.3638339 3.316421 -0.070420451 81
2.3635669 3.3148222 1.0798656 40
2.3591409 3.3073936 0.9283455 34
2.3628583 3.3113823 0.78256762 42
2.3635309 3.3111026 0.63754928 39
2.3640761 3.3106446 0.49408618 40
2.3645644 3.3101063 0.35184166 40
2.3650475 3.3095613 0.21047229 40
2.365562 3.3090603 0.06962993 49
2.3480065 3.2784514 -1.0695195 57
2.2071619 3.0806584 -0.86540681 23
2.2125254 3.0870068 -0.73014224 39
2.0625505 2.8766949 -0.55394906 21
2.2668748 3.1605065 -0.47218087 10
0.6117658 0.85261762 -0.088463083 9
0.58715659 0.81801832 -0.050596807 13
2.3812277 3.3162711 -0.070594981 77
2.3807592 3.3143976 1.0824522 38
2.3763576 3.3070512 0.93059325 35
2.3801322 3.3110847 0.78447396 41
2.3808405 3.3108509 0.63911188 40
2.3814142 3.3104296 0.49530312 40
2.381923 3.3099179 0.35271147 51
2.3824203 3.3093908 0.21099392 47
2.3835187 3.3084803 0.069802716 53
2.37414 3.2894053 -1.0759858 62
2.2298462 3.0883484 -0.86990243 35
2.2295728 3.0868342 -0.73204863 40
2.070188 2.865113 -0.55316776 15
2.2232053 3.0757561 -0.46061975 11
2.3105888 3.1954744 -0.34165052 6
nan nan nan 0
2.3992279 3.3156214 -0.070769504 81
2.398555 3.3134739 1.0850385 38
2.3941774 3.3062112 0.93284112 33
2.3980107 3.3102889 0.78638035 43
2.3987556 3.3101008 0.64067453 37
2.4022703 3.3137333 0.49712861 40
2.3998871 3.3092303 0.35358131 40
2.4033301 3.3127611 0.21177633 42
2.4009256 3.3082318 0.069975488 47
2.391288 3.2889109 -1.0785724 67
2.2463446 3.0884261 -0.87215024 44
2.2461097 3.0869703 -0.73395497 40
2.0801764 2.8578691 -0.55316776 11
2.181345 2.9957619 -0.4496671 13
2.327594 3.1954415 -0.34252205 12
nan nan nan 0
2.4166765 3.3153064 -0.070944034 77
2.4157982 3.3128862 1.0876251 39
2.4143174 3.3096421 0.93621284 34
2.4182315 3.3137927 0.78923988 40
2.4161193 3.309685 0.64223719 36
2.4196763 3.3133433 0.49834552 49
2.4173002 3.3088768 0.35445109 38
2.4207714 3.3124139 0.21229795 40
2.41836 3.3079028 0.070148274 42
2.4113157 3.2922332 -1.0824522 59
2.2628706 3.0884261 -0.87439805 51
2.2626748 3.087029 -0.73586136 40
2.0989001 2.8625386 -0.55551171 11
2.1595011 2.9441099 -0.44297382 17
2.3269475 3.1712341 -0.34077895 10
2.4277036 3.3073368 -0.21229795 51
2.4341521 3.3149092 -0.071118549 81
2.4330661 3.3122182 1.0902116 37
2.4316258 3.3090465 0.93846059 35
2.4355984 3.313241 0.79114634 42
2.4335091 3.3091881 0.64379978 35
2.437109 3.3128722 0.49956253 40
2.4347408 3.3084426 0.35532093 39
2.4382396 3.3119862 0.21281958 42
2.4358211 3.3074915 0.070321046 49
2.4313955 3.2954557 -1.0863318 59
2.2765305 3.0844283 -0.87552196 49
2.2792678 3.087009 -0.73776776 40
2.1030111 2.84725 -0.55394906 14
2.1638663 2.928571 -0.44175684 15
2.3439245 3.1711032 -0.34165052 11
2.4481394 3.3108871 -0.21308038 69
2.4516544 3.3144307 -0.071293078 80
2.4503589 3.31147 1.0927981 37
2.4489589 3.3083704 0.94070846 33
2.4559116 3.3165524 0.79400587 45
2.4509249 3.3086102 0.64536244 35
2.4545679 3.3123193 0.50077945 39
2.4522069 3.3079262 0.35619074 36
2.4557343 3.311476 0.21334118 40
2.4533088 3.3069992 0.070493832 42
2.4509511 3.2990055 -1.0902116 61
2.2925589 3.0846829 -0.87776977 54
2.2953494 3.087312 -0.73967409 40
2.1183362 2.8481858 -0.55551171 16
2.1735659 2.9213793 -0.44175684 14
2.3603752 3.1713042 -0.34252205 12
2.4620874 3.3067553 -0.21334118 68
2.4686043 3.3143008 -0.071467601 76
2.4699841 3.3149452 1.0966779 38
2.4686513 3.31195 0.94408011 34
2.4727643 3.3162594 0.79591221 48
2.4677885 3.3083813 0.64692503 35
2.4714749 3.3121169 0.50199646 39
2.4691224 3.3077598 0.35706058 38
2.4726772 3.3113165 0.21386281 44
2.4702454 3.3068557 0.070666604 40
2.4682398 3.2981639 -1.0927981 64
2.3091521 3.0844619 -0.88001758 51
2.3119962 3.0871379 -0.74158049 39
2.2259812 2.9712038 -0.58129495 6
2.1807737 2.9098029 -0.4411484 12
2.3774066 3.1710165 -0.34339362 12
2.4826031 3.3101249 -0.21412362 71
2.4861593 3.3136618 -0.071642123 74
2.4873388 3.314029 1.0992644 39
2.4860477 3.3111045 0.94632798 34
2.4902205 3.3154571 0.7978186 40
2.485255 3.3076439 0.64848769 35
2.4889846 3.311404 0.50321335 40
2.489634 3.3110642 0.3583653 40
2.4902239 3.3106456 0.21438444 42
2.4883623 3.305768 0.07083939 45
2.4890356 3.3006642 -1.0966779 63
2.3263099 3.0837567 -0.88226539 50
2.3292089 3.0864789 -0.74348688 39
2.2636361 2.9984984 -0.58832675 20
2.1914241 2.9017906 -0.4411484 11
2.3950179 3.1702302 -0.34426516 12
2.5007393 3.3089705 -0.21464522 70
2.5043175 3.3125026 -0.071816646 74
2.508209 3.3164468 1.1031442 39
2.5069852 3.3136265 0.94969964 35
2.5082798 3.3141348 0.79972494 39
2.5033238 3.3063872 0.65005022 36
2.5070977 3.3101714 0.50443035 39
2.5077691 3.3098574 0.35923514 38
2.5083733 3.3094549 0.21490604 39
2.5089474 3.3090127 0.071098559 45
2.5063851 3.299648 -1.0992644 60
2.3429554 3.0833762 -0.8845132 51
2.3488793 3.0900526 -0.74634641 39
2.2651212 2.9787855 -0.5859828 14
2.2345912 2.9375722 -0.44784164 7
2.412102 3.1697781 -0.34513673 12
2.5183234 3.3081667 -0.21516685 69
2.5249515 3.3156729 -0.072078437 75
2.525624 3.3153553 1.1057307 40
2.5244431 3.3126061 0.95194751 36
2.5257847 3.3131666 0.80163133 39
2.5208395 3.3054829 0.65161288 38
2.5276675 3.313237 0.50625581 39
2.528373 3.3129625 0.36053985 37
2.5259702 3.3086166 0.21542767 40
2.526552 3.308181 0.071271338 40
2.523757 3.2985506 -1.1018509 61
2.3620486 3.0871978 -0.88788486 47
2.3650799 3.0900416 -0.74825281 39
2.2749867 2.9712577 -0.5859828 20
2.2775154 2.973485 -0.45453495 8
2.4316885 3.1736233 -0.34644407 12
2.5353551 3.3077235 -0.21568845 69
2.5420163 3.3152158 -0.072252959 71
2.5454228 3.3184586 1.1096104 39
2.5413461 3.3119464 0.95419526 34
2.5457234 3.3164527 0.80449092 42
2.5408103 3.308856 0.65395683 36
2.5446875 3.3127081 0.50747275 40
2.5484505 3.3164086 0.36184457 40
2.543014 3.3081388 0.21594927 40
2.5466506 3.3116732 0.071530506 42
2.5405772 3.297816 -1.1044375 62
2.3787587 3.0866516 -0.89013267 54
2.3818455 3.0895417 -0.7501592 39
2.2732809 2.9476559 -0.58285761 28
2.2939439 2.9733756 -0.4557519 10
2.4488382 3.1730022 -0.34731564 12
2.55604 3.3107107 -0.2164709 69
2.5627406 3.318192 -0.072514743 67
2.5628965 3.3171973 1.1121969 38
2.5588503 3.3107653 0.95644313 32
2.5632892 3.3153124 0.80639732 38
2.5583875 3.3077796 0.65551943 35
2.565346 3.3155804 0.50929821 40
2.5661087 3.3153706 0.36271441 35
2.5637169 3.3110862 0.21673168 40
2.5643177 3.3106685 0.071703285 42
2.5609558 3.3003745 -1.1083171 65
2.3954937 3.0860269 -0.89238054 50
2.3986363 3.0889623 -0.75206554 39
2.2744668 2.9280021 -0.58051366 31
2.2982187 2.9575126 -0.45453495 10
2.4660134 3.1722999 -0.34818718 11
2.5737112 3.3096514 -0.2169925 68
2.5773773 3.3131721 -0.072602004 71
2.5803928 3.3158543 1.1147834 41
2.5763769 3.3095019 0.95869088 36
2.5808773 3.3140893 0.80830365 43
2.5790236 3.3105171 0.65786338 37
2.583005 3.3144343 0.51051515 46
2.5868535 3.3181782 0.36401913 42
2.5814006 3.3099918 0.21725331 44
2.5850837 3.3135216 0.071962453 54
2.5784094 3.2990265 -1.1109037 63
2.4152539 3.0891607 -0.89575225 48
2.4184756 3.0921693 -0.75492513 39
2.272501 2.9044867 -0.57738841 32
2.3177049 2.9611969 -0.4563604 9
2.4862833 3.1754382 -0.34949452 11
2.5914066 3.3085093 -0.21751413 69
2.59201 3.3080904 -0.072689272 67
2.5979106 3.3144293 1.1173699 41
2.5969322 3.3119905 0.9620626 35
2.6015182 3.3166468 0.81116331 39
2.5966609 3.3092647 0.65942597 38
2.6037521 3.3171101 0.51234061 40
2.6045728 3.3169632 0.36488891 35
2.6021924 3.3127408 0.21803573 42
2.6028118 3.3123395 0.072135225 39
2.5958841 3.2975957 -1.1134901 63
2.4320509 3.0883665 -0.89800006 49
2.4353297 3.0914199 -0.75683153 39
2.2734554 2.8848996 -0.57504445 33
2.3341722 2.9608831 -0.45757735 5
2.5035217 3.1745622 -0.35036609 11
2.6029396 3.2994435 -0.21751413 29
2.6035419 3.2990227 -0.072689272 113
2.6184425 3.3167133 1.1212497 37
2.6145167 3.3105524 0.96431047 35
2.6191647 3.3152483 0.81306958 42
2.6173832 3.3118048 0.66176993 37
2.6214707 3.3157866 0.51355755 40
2.6223149 3.315665 0.36575875 36
2.6199365 3.3114696 0.21855736 39
2.6236663 3.3149946 0.072394401 42
2.6163812 3.2998681 -1.1173699 65
2.4488716 3.0874927 -0.90024787 51
2.4522071 3.0905898 -0.75873792 39
2.2712305 2.8614738 -0.5719192 19
2.3506653 2.9604907 -0.45879433 14
2.5207839 3.1736045 -0.35123762 11
2.6175468 3.2942464 -0.21777491 25
2.6150417 3.2899144 -0.072689272 130
2.6360159 3.3151138 1.1238362 36
2.6351554 3.3128443 0.96768212 34
2.6398895 3.3176074 0.81592917 39
2.6381545 3.3142397 0.66411388 35
2.6423037 3.3182633 0.51538301 40
2.6431832 3.3181796 0.36706346 36
2.6408148 3.3140187 0.21933977 40
2.6414535 3.3136339 0.07256718 45
2.6339118 3.2982638 -1.1199565 64
2.4657159 3.0865386 -0.90249562 48
2.4691091 3.08968 -0.76064426 39
2.2657864 2.8342409 -0.56801265 9
2.3671844 2.9600191 -0.46001127 11
2.5411813 3.1764548 -0.35254499 11
2.6321499 3.2889881 -0.21803573 28
2.6265094 3.280766 -0.072689272 110
2.6566296 3.3172023 1.1277159 39
2.6527958 3.3112304 0.96992999 32
2.6575933 3.3160324 0.81783557 38
2.6589751 3.31657 0.66645777 36
2.6600802 3.3167624 0.51659995 39
2.6609838 3.3167031 0.3679333 37
2.658617 3.3125682 0.21986137 39
2.6592641 3.3121901 0.072739959 39
2.6544898 3.3003397 -1.1238362 66
2.4856372 3.0893004 -0.90586734 48
2.4860339 3.0886896 -0.76255065 39
2.2663741 2.8147748 -0.5656687 7
2.3806152 2.9556029 -0.46061975 12
2.5991306 3.2257433 -0.35908166 17
2.6436148 3.2797801 -0.21803573 26
2.6410837 3.2754695 -0.072776534 107
2.674257 3.3154271 1.1303024 38
2.6735163 3.3133249 0.97330165 32
2.6784008 3.3181932 0.8206951 44
2.6767409 3.3149529 0.66802043 36
2.6809971 3.3190384 0.51842541 40
2.6788068 3.3151429 0.36880311 37
2.6764419 3.3110342 0.220383 39
2.6802399 3.3145497 0.072999127 40
2.6720748 3.2985604 -1.1264228 69
2.5025411 3.0881758 -0.90811521 48
2.506073 3.0914314 -0.76541018 39
2.2855177 2.8183539 -0.56801265 9
2.3909178 2.9472749 -0.46061975 13
2.6574552 3.2746661 -0.36561832 39
2.6581943 3.2744091 -0.21829654 25
2.6556525 3.2701113 -0.072863787 108
2.691905 3.3135695 1.132889 38
2.6942837 3.3153152 0.97667336 34
2.6992557 3.3202493 0.82355464 40
2.6976438 3.3170836 0.67036432 37
2.6988304 3.3173597 0.51964235 39
2.699795 3.3173623 0.37010786 37
2.6974406 3.3132882 0.22116543 40
2.6981075 3.3129263 0.073171906 40
2.6927319 3.3004394 -1.1303024 70
2.5194662 3.0869703 -0.91036296 47
2.519953 3.0864668 -0.76636338 39
2.3015897 2.8180087 -0.56957531 10
2.398051 2.9350679 -0.46001127 12
2.6972392 3.3000803 -0.36954033 58
2.6696079 3.2651103 -0.21829654 27
2.6702161 3.2646909 -0.072951056 108
2.7126303 3.315367 1.1367687 36
2.7120118 3.3134308 0.97892123 32
2.7170482 3.3184025 0.82546109 38
2.7154646 3.3152876 0.67192692 38
2.7166846 3.3155966 0.5208593 39
2.7176731 3.3156226 0.37097767 35
2.7153218 3.3115745 0.22168705 40
2.716574 3.3107443 0.073344685 40
2.7109449 3.2980106 -1.132889 70
2.5369527 3.0852416 -0.91261083 49
2.543721 3.0923724 -0.77017617 38
2.3150406 2.8133674 -0.57035661 11
2.4056385 2.9224272 -0.4594028 10
2.7188156 3.3017075 -0.3708477 62
2.684732 3.2591579 -0.21855736 26
2.682164 3.2548823 -0.072951056 103
2.7339799 3.3165827 1.1406485 39
2.7334366 3.3147452 0.98229289 35
2.7385628 3.3197803 0.82832062 39
2.7370279 3.3167405 0.67427093 38
2.738297 3.3170989 0.52268481 39
2.7393222 3.3171616 0.37228239 36
2.7369814 3.3131485 0.22246948 39
2.7376683 3.3128026 0.073603854 40
2.7255204 3.2922473 -1.1341822 32
2.5539217 3.0838721 -0.91485858 48
2.5294495 3.0532367 -0.76255065 6
2.3311496 2.8128743 -0.5719192 18
2.4126575 2.9101918 -0.45879433 9
2.7366829 3.2998648 -0.37171924 60
2.69928 3.2536087 -0.21881814 25
2.6967018 3.2493467 -0.073038317 100
2.7517109 3.3144517 1.143235 38
2.7512162 3.3126798 0.98454076 32
2.7564075 3.3177516 0.83022702 39
2.7549016 3.3147621 0.67583346 37
2.7562046 3.3151526 0.5239017 38
2.7604401 3.3190684 0.37358713 33
2.7549167 3.3112519 0.22299111 39
2.7556114 3.3109109 0.073776633 39
2.2792418 2.7336903 -0.94278091 6
2.5771532 3.0899043 -0.9193542 44
nan nan nan 0
2.3441188 2.8085115 -0.57270056 26
2.41644 2.8941331 -0.45757735 8
2.7577643 3.3017609 -0.37302655 59
2.7106209 3.2441666 -0.21881814 22
2.7080276 3.2399139 -0.073038317 100
2.772558 3.315942 1.1471148 38
2.7721405 3.3142672 0.98791248 36
2.777421 3.3194032 0.83308655 53
2.7759652 3.3164868 0.67817742 38
2.7773178 3.3169262 0.52572715 46
2.7784054 3.317049 0.37445694 43
2.7760789 3.3130968 0.22377352 42
2.7767861 3.3127661 0.074035801 45
2.2701352 2.7035246 -0.9350214 5
2.5910568 3.08462 -0.92047811 50
2.5885947 3.0805967 -0.7739889 29
2.3602633 2.8078725 -0.57426316 29
2.4201393 2.8780839 -0.4563604 7
2.778892 3.3035495 -0.37433392 59
2.7251437 3.2385058 -0.21907896 22
2.7225404 3.234266 -0.073125578 100
2.7903376 3.3136325 1.1497012 48
2.7899702 3.3120224 0.99016023 33
2.7953167 3.3171947 0.834993 41
2.793891 3.3143284 0.67974007 35
2.7952781 3.3147995 0.52694416 39
2.7996023 3.3187525 0.37576166 36
2.7940676 3.3110185 0.22429512 40
2.7980072 3.3145132 0.074294962 40
nan nan nan 0
2.6175416 3.0941546 -0.92609763 35
2.6183567 3.0940225 -0.77970797 39
2.3764324 2.8071551 -0.57582575 34
2.4237564 2.8620439 -0.45514345 7
2.8000658 3.3052306 -0.37564126 61
2.7364316 3.2289736 -0.21907896 19
2.7338133 3.2247431 -0.073125578 99
2.8112595 3.3149233 1.153581 38
2.8109698 3.3134093 0.993532 33
2.816407 3.3186438 0.83785254 40
2.8150318 3.3158505 0.68208396 38
2.8164692 3.3163702 0.52876955 40
2.8208456 3.3203485 0.3770664 33
2.8153088 3.3126597 0.22507757 39
2.8192744 3.3161528 0.074554138 39
nan nan nan 0
2.2428536 2.6325502 -0.78898126 11
2.6355083 3.092335 -0.78161442 39
2.3926249 2.8063591 -0.57738841 36
2.4272912 2.8460138 -0.45392647 7
2.8180513 3.3030145 -0.3765128 56
2.7509277 3.2232001 -0.21933977 19
2.7482989 3.2189822 -0.07321284 97
2.8322234 3.3161077 1.1574607 38
2.8288481 3.3109851 0.99577975 36
2.8343515 3.3162544 0.83975887 43
2.8362172 3.3172648 0.68442798 36
2.8377059 3.3178337 0.53059506 42
2.8388946 3.3180509 0.37793621 35
2.8365953 3.3141923 0.22585998 39
2.8405871 3.3176842 0.074813306 42
2.8234406 3.2918382 -1.1509944 30
2.2425117 2.6136124 -0.78560954 8
2.6558766 3.09429 -0.78447396 39
2.4120576 2.8092308 -0.5797323 38
2.42751 2.8262293 -0.45210102 6
2.8393025 3.3044922 -0.37782016 60
2.762162 3.2135782 -0.21933977 17
2.7595186 3.2093692 -0.07321284 96
2.850081 3.3135247 1.1600473 37
2.8499215 3.3121698 0.99915147 31
2.8555162 3.3175011 0.84261847 37
2.854224 3.3148291 0.68599051 36
2.8589866 3.3191888 0.53242046 38
2.860214 3.3194416 0.37924096 36
2.8579266 3.3156166 0.2266424 38
2.8619444 3.3191066 0.075072475 39
2.8349137 3.2819624 -1.1509944 31
nan nan nan 0
2.6730809 3.092427 -0.78638035 39
2.4283099 2.8082657 -0.58129495 39
2.4341137 2.8139851 -0.45149252 6
2.8605978 3.3058605 -0.37912747 58
2.7766304 3.2076919 -0.21960059 17
2.7739775 3.2034969 -0.073300101 95
2.8711166 3.3145077 1.1639271 37
2.8710375 3.3132479 1.0025232 33
2.8767242 3.31864 0.845478 37
2.8754835 3.3160393 0.68833447 35
2.880311 3.3204353 0.53424591 39
2.8783126 3.3169615 0.38011077 35
2.8793025 3.3169327 0.22742485 39
2.880069 3.3166459 0.075245254 39
nan nan nan 0
2.6796772 3.0793586 -0.93284112 39
2.6935277 3.0941839 -0.78923988 39
2.4413407 2.8034964 -0.58207625 39
2.4406619 2.801729 -0.45088407 6
2.878665 3.3033657 -0.37999907 60
2.7910914 3.2017436 -0.21986137 16
2.7884285 3.197562 -0.073387362 97
2.8890185 3.3117445 1.1665134 36
2.8921955 3.314218 1.0058949 32
2.8979745 3.3196704 0.84833759 37
2.8935385 3.3134217 0.68989712 36
2.901679 3.3215733 0.5360713 38
2.8997064 3.3181458 0.38141549 33
2.9007223 3.3181393 0.22820726 39
2.9015012 3.3178618 0.075504422 39
2.8832181 3.2911549 -1.1613405 27
2.7064652 3.0883062 -0.93846059 16
2.7107832 3.0921445 -0.79114634 39
2.4934428 2.8432267 -0.5922333 28
2.4471538 2.7894619 -0.45027557 6
2.9000347 3.304528 -0.38130638 58
2.8055449 3.195734 -0.22012219 16
2.7995729 3.187809 -0.073387362 96
2.9101248 3.3125257 1.1703933 35
2.9133949 3.3150811 1.0092666 31
2.9192669 3.3205934 0.85119712 38
2.9148712 3.3144262 0.69224101 35
2.9198122 3.3188765 0.53728831 37
2.9178529 3.3154826 0.38228533 31
2.9188859 3.3154893 0.22872886 39
2.9196734 3.315217 0.075677201 39
2.2300653 2.5277333 -0.892344 7
2.2916806 2.5966589 -0.79010516 4
2.7280571 3.0900221 -0.79305267 39
2.5458517 2.8826265 -0.60239035 13
2.456876 2.7809029 -0.45027557 7
2.9214478 3.3055818 -0.38261372 58
2.8199906 3.1896625 -0.220383 16
2.8139954 3.181762 -0.073474631 95
2.9312711 3.313199 1.174273 36
2.9346366 3.3158364 1.0126384 30
2.9406009 3.321408 0.85405672 38
2.9362454 3.3153224 0.69458491 33
2.9412522 3.3198082 0.53911376 38
2.9393196 3.3164604 0.38359004 33
2.9403789 3.316489 0.22951131 38
2.9411793 3.3162258 0.07593637 39
2.2581229 2.5415978 -0.90010357 22
2.303967 2.5922854 -0.79122907 16
2.7420883 3.0841489 -0.79400587 39
2.5624628 2.881103 -0.60395294 12
2.469867 2.7760174 -0.45088407 6
2.942903 3.3065259 -0.38392103 52
2.8311071 3.1797991 -0.220383 16
2.8250847 3.1719198 -0.073474631 93
2.9556699 3.3173714 1.1794461 37
2.9559176 3.3164837 1.01601 29
2.9619761 3.3221135 0.85691625 37
2.9576623 3.3161099 0.69692892 37
2.9627352 3.3206306 0.54093915 40
2.9608285 3.3173282 0.38489476 33
2.9585886 3.3136542 0.23003291 38
2.9593976 3.3133957 0.076109149 40
nan nan nan 0
2.3000047 2.5697062 -0.78673345 9
2.7528372 3.0745585 -0.79400587 33
2.5725038 2.8721406 -0.60395294 11
2.4828537 2.7710755 -0.45149252 6
2.961076 3.3036516 -0.3847926 58
2.8455226 3.173615 -0.22064382 15
2.8394773 3.1657608 -0.073561884 97
2.9769084 3.3178189 1.1833258 37
2.9772394 3.3170228 1.0193818 32
2.9833918 3.3227108 0.85977584 35
2.9791198 3.3167877 0.69927281 36
2.980942 3.3176517 0.54215616 39
2.9823794 3.3180866 0.3861995 33
2.9801531 3.3144457 0.23081534 42
2.9809754 3.3141966 0.076368317 43
nan nan nan 0
2.2926507 2.5435672 -0.78111392 3
2.7635527 3.0649304 -0.79400587 18
2.5758984 2.8558092 -0.60239035 11
2.4958365 2.7660763 -0.45210102 6
2.9826021 3.3043878 -0.38609993 56
2.8565834 3.1636627 -0.22064382 15
2.8505106 3.1558299 -0.073561884 96
2.9981856 3.3181579 1.1872054 38
2.998601 3.3174531 1.0227535 33
3.0048485 3.3231988 0.86263543 36
3.000618 3.3173563 0.7016167 34
3.0024939 3.3182659 0.54398155 37
3.0039716 3.3187346 0.38750422 32
3.0017591 3.3151269 0.23159777 39
3.002594 3.3148863 0.076627485 39
2.9824097 3.2868333 -1.1781528 32
2.3211629 2.5571938 -0.78785735 2
2.7577367 3.0370965 -0.78923988 11
2.57921 2.839489 -0.60082769 11
2.5054765 2.7573473 -0.45210102 7
3.0041695 3.3050139 -0.38740724 40
2.8709686 3.1573665 -0.22090463 15
2.8648729 3.1495585 -0.073649146 91
3.0195019 3.3183894 1.1910853 37
3.0200016 3.317775 1.0261252 33
3.0263438 3.3235769 0.86549497 39
3.0221565 3.3178151 0.70396072 35
3.0240867 3.3187704 0.54580706 38
3.0256045 3.319272 0.38880894 31
3.0234056 3.3156972 0.2323802 37
3.0242541 3.3154655 0.076886654 39
2.993865 3.2764027 -1.1781528 28
2.3399365 2.5598643 -0.79122907 2
2.7782578 3.0383182 -0.79209942 13
2.5891061 2.8304687 -0.60082769 13
2.5117362 2.7449236 -0.45149252 6
nan nan nan 0
2.8853443 3.1510084 -0.22116543 14
2.8758497 3.139539 -0.073649146 95
3.0408556 3.3185115 1.194965 35
3.0414407 3.3179872 1.0294969 31
3.0478785 3.3238456 0.8683545 39
3.0437346 3.3181636 0.70630461 35
3.0457189 3.3191638 0.54763246 38
3.0472779 3.3196993 0.39011371 33
3.0450926 3.3161566 0.23316261 38
3.0493369 3.3196154 0.077232212 39
2.9889312 3.2481618 -1.1716865 11
2.3620563 2.5660191 -0.79572469 3
2.7888467 3.0286019 -0.79209942 15
2.6157002 2.8395753 -0.60473424 14
2.514576 2.7288399 -0.45027557 7
3.0474253 3.3059347 -0.39002195 44
2.8963258 3.1409175 -0.22116543 14
2.8901811 3.1331563 -0.073736414 91
3.0622473 3.3185256 1.1988448 37
3.0629177 3.3180902 1.0328686 30
3.0694518 3.3240044 0.87121403 35
3.0653515 3.3184016 0.7086485 37
3.0707591 3.323092 0.55006641 38
3.0689902 3.3200147 0.39141843 34
3.0668199 3.3165057 0.23394506 38
3.0710902 3.3199608 0.077491388 39
2.9411602 3.1739411 -1.1484081 5
2.3776233 2.5649045 -0.7979725 6
nan nan nan 0
2.6289551 2.8340483 -0.6055156 14
2.5173345 2.7127702 -0.44905862 11
3.0691128 3.3062289 -0.39132926 58
2.9106698 3.1344473 -0.22142623 13
2.9011004 3.1230485 -0.073736414 95
3.0803878 3.3148921 1.2014314 37
3.0844331 3.3180838 1.0362405 30
3.0910635 3.3240528 0.87407368 33
3.0870073 3.3185291 0.71099246 35
3.0924826 3.3232517 0.5518918 39
3.0907421 3.3202193 0.39272314 33
3.0919893 3.3203967 0.23498829 39
3.0928833 3.3201947 0.077750549 39
2.9588113 3.170717 -1.1509944 16
2.3832374 2.5530276 -0.7968486 13
nan nan nan 0
2.6624303 2.8501163 -0.61098474 12
2.5200117 2.6967144 -0.44784164 17
3.0908396 3.3064117 -0.39263663 40
2.9250038 3.1279149 -0.22168705 13
2.9153993 3.1165538 -0.073823676 95
3.1018407 3.3146992 1.2053111 34
3.1059854 3.3179672 1.0396121 31
3.1127129 3.3239911 0.87693322 39
3.108701 3.3185458 0.71333641 33
3.1142445 3.3233006 0.55371726 38
3.1125329 3.3203127 0.39402786 36
3.1138072 3.3205101 0.2357707 38
3.1147146 3.3203163 0.078009717 39
3.0293963 3.2237236 -1.174273 17
2.3787866 2.5304937 -0.79235297 13
2.2756901 2.4199758 -0.63768297 7
nan nan nan 0
2.536212 2.6951299 -0.44905862 16
3.1126046 3.3064828 -0.39394397 38
2.9359045 3.1176858 -0.22168705 14
2.929688 3.1099968 -0.073910944 91
3.1266418 3.3179116 1.210484 35
3.1275742 3.3177404 1.0429838 34
3.1343992 3.3238184 0.87979275 37
3.1304326 3.3184514 0.71568036 35
3.1360445 3.3232381 0.55554271 38
3.1377807 3.3239157 0.39576748 34
3.135664 3.3205118 0.23655312 39
3.1365845 3.3203261 0.078268886 39
3.0605495 3.2341781 -1.1820325 21
2.377557 2.5115604 -0.78898126 15
2.2841234 2.4120176 -0.63768297 2
2.7026412 2.8529716 -0.61567259 2
2.5524313 2.6934648 -0.45027557 16
3.134408 3.3064423 -0.39525127 55
2.9502053 3.1110418 -0.22194786 13
2.9405262 3.0997515 -0.073910944 95
3.1481781 3.3174877 1.2143638 37
3.1491985 3.3174033 1.0463555 28
3.1561222 3.3235347 0.8826524 34
3.1522009 3.3182454 0.71802425 35
3.1578815 3.3230636 0.55736816 37
3.1596603 3.3237736 0.39707226 33
3.1575577 3.320401 0.23733553 39
3.1584928 3.3202236 0.078528054 39
2.9485366 3.094105 -1.1341822 10
2.3795862 2.4961932 -0.78673345 14
2.2959163 2.4075816 -0.63863617 2
nan nan nan 0
2.5686705 2.6917198 -0.45149252 21
3.1562483 3.3062892 -0.39655861 57
2.9644952 3.1043355 -0.22220866 14
2.9547815 3.0930829 -0.073998198 98
3.1697502 3.3169541 1.2182436 36
3.1708596 3.316956 1.0497272 34
3.177881 3.3231392 0.88551193 38
3.1740065 3.3179281 0.72036821 37
3.1831875 3.3263628 0.55980206 38
3.1815763 3.3235178 0.39837697 30
3.1794896 3.3201778 0.23811798 40
3.1804385 3.3200088 0.078787223 39
2.9292214 3.0524304 -1.1225429 12
2.3882852 2.4878716 -0.78673345 17
2.3553021 2.4526565 -0.65293401 7
2.3461483 2.442271 -0.52972847 4
2.5883667 2.6934721 -0.453318 19
3.1781261 3.3060246 -0.39786598 57
2.9753134 3.0939686 -0.22220866 14
2.9690263 3.0863528 -0.074085459 95
3.194705 3.3197901 1.2234167 37
3.1959343 3.3199072 1.0542228 31
3.1996753 3.3226328 0.88837147 35
3.1958475 3.3174989 0.72271216 36
3.2051101 3.3259518 0.56162751 36
3.2035291 3.3231502 0.39968169 27
3.2014577 3.3198419 0.23890039 39
3.2024205 3.3196805 0.079046391 39
2.9096525 3.0109289 -1.1109037 9
2.4037273 2.4865255 -0.78898126 13
2.3604369 2.4408915 -0.65198076 6
2.3615265 2.4411654 -0.53129107 4
2.6046553 2.6915531 -0.45453495 20
3.2000401 3.3056471 -0.39917329 53
2.9895685 3.0871508 -0.22246948 14
2.9797816 3.0759702 -0.074085459 97
3.2163575 3.3190236 1.2272964 33
3.2176769 3.3192255 1.0575945 30
3.2215049 3.3220143 0.891231 36
3.221163 3.3205016 0.72583741 32
3.2270691 3.3254285 0.56345302 37
3.2289875 3.3262436 0.40142131 28
3.2269411 3.3229749 0.23994364 40
3.2244389 3.3192389 0.079305559 39
nan nan nan 0
2.4157908 2.481611 -0.79010516 12
2.3723676 2.4361537 -0.65293401 32
2.387264 2.4505949 -0.53519762 12
2.6244259 2.6931078 -0.4563604 20
3.2254672 3.3087234 -0.40091643 55
3.0038126 3.0802715 -0.22273029 15
2.9939916 3.0691288 -0.074172728 98
3.2414165 3.3216031 1.2324693 34
3.2394533 3.3184323 1.0609663 32
3.2433693 3.3212838 0.89409065 32
3.2430873 3.3198357 0.7281813 33
3.2490628 3.3247917 0.56527841 38
3.2510247 3.3256378 0.40272608 29
3.2489936 3.3224001 0.24072605 40
3.2499895 3.3222582 0.079651125 37
2.8122842 2.8698056 -1.0656399 6
2.4278488 2.4766426 -0.79122907 10
2.3842931 2.4313622 -0.65388715 31
2.3508439 2.3964157 -0.52504057 140
2.6372864 2.6874726 -0.45696887 18
3.2474651 3.3081074 -0.40222374 57
3.0180449 3.0733304 -0.22299111 15
3.0046866 3.0586591 -0.074172728 99
3.2631469 3.3206024 1.2363491 33
3.2646785 3.3210015 1.0654619 28
3.2687089 3.3239408 0.89790338 35
3.2650456 3.3190565 0.7305252 34
3.2710915 3.3240418 0.56710386 38
3.2730966 3.3249183 0.4040308 31
3.2710819 3.321712 0.2415085 40
3.2720916 3.3215775 0.079910286 39
2.9308448 2.969981 -1.1070238 25
2.443325 2.4750869 -0.79347688 7
2.3962147 2.4265172 -0.65484035 24
2.3730776 2.4022489 -0.52816582 39
nan nan nan 0
3.2694981 3.3073788 -0.4035311 61
3.0322654 3.0663269 -0.22325189 15
3.0188608 3.0517063 -0.074259989 100
3.2883074 3.3229239 1.2415221 34
3.2865343 3.319973 1.0688336 30
3.2906528 3.3229733 0.90076292 35
3.2905138 3.3216734 0.73365045 35
3.296648 3.3267043 0.56953776 39
3.2987099 3.3276229 0.40577042 28
3.2932045 3.3209102 0.24229091 39
3.2942286 3.3207834 0.080169454 39
2.9377899 2.9563065 -1.1057307 12
2.4656889 2.4803641 -0.7979725 5
2.4081309 2.4216182 -0.65579355 25
2.3884144 2.4009531 -0.52972847 24
nan nan nan 0
3.2950797 3.3100665 -0.40527421 55
3.0429506 3.0557237 -0.22325189 16
3.0330229 3.0446911 -0.074347243 98
3.3101141 3.3216887 1.245402 35
3.3118618 3.3222828 1.0733292 30
3.3160954 3.3253689 0.90457571 33
3.3125527 3.3206565 0.7359944 32
3.3187568 3.3257151 0.57136321 37
3.3208625 3.3266635 0.40707514 29
3.3153615 3.3199937 0.24307333 39
3.3163996 3.3198743 0.080428623 38
2.944675 2.9426198 -1.1044375 7
2.4984598 2.4958448 -0.80583984 5
2.4200425 2.4166658 -0.65674675 23
2.4002759 2.3960905 -0.53050977 19
nan nan nan 0
3.3171928 3.3090975 -0.40658155 48
3.0571339 3.0486085 -0.22351271 14
3.047173 3.0376151 -0.074434511 95
3.3319523 3.3203421 1.2492816 36
3.3337934 3.321017 1.0767009 29
3.3415949 3.3276269 0.90838844 35
3.3346236 3.3195257 0.73833835 36
3.3444166 3.3281126 0.57379711 38
3.3465798 3.329103 0.40881479 30
3.3375518 3.3189631 0.24385574 39
3.3386047 3.3188515 0.080687799 38
2.9446435 2.9221168 -1.1005577 5
2.5002391 2.4802458 -0.80359203 3
2.4354341 2.4151158 -0.65865314 23
2.4121325 2.3911741 -0.53129107 20
nan nan nan 0
3.3393395 3.3080142 -0.40788886 51
3.0677569 3.0379188 -0.22351271 15
3.0613105 3.030477 -0.074521773 73
3.3572547 3.3222804 1.2544546 35
3.3592205 3.3230653 1.0811965 31
3.3671498 3.3297467 0.91220117 34
3.360239 3.321753 0.7414636 36
3.3666041 3.3268836 0.57562262 38
3.3688107 3.3279023 0.4101195 34
3.3633282 3.3213267 0.24489897 37
3.3608425 3.317714 0.08094696 38
3.0201888 2.9762321 -1.1251295 6
2.5297065 2.492018 -0.81033546 2
2.4473469 2.4100442 -0.65960634 21
2.4275031 2.3896685 -0.53285366 20
2.340668 2.3033822 -0.39794627 5
3.3650696 3.3103099 -0.40963197 53
3.0819027 3.0306928 -0.22377352 15
3.0754356 3.0232773 -0.074609034 62
3.3791656 3.3206966 1.2583344 33
3.3812263 3.3215618 1.0845683 31
3.3892586 3.32829 0.9150607 35
3.3823864 3.3203824 0.74380749 34
3.3923652 3.3290157 0.57805651 38
3.3910739 3.3265872 0.41142425 29
3.3855968 3.3200545 0.24568142 39
3.386683 3.3199604 0.081292517 38
3.1134069 3.0467448 -1.1561675 4
2.5174932 2.4627306 -0.80359203 2
2.4627631 2.4083498 -0.66151267 19
2.4393618 2.3846328 -0.53363502 17
2.3415952 2.2882607 -0.39672932 3
3.3872931 3.3089855 -0.41093931 53
3.096036 3.0234053 -0.22403434 14
3.0931244 3.0195079 -0.074783556 66
3.4045634 3.3223741 1.2635074 34
3.4067497 3.3233471 1.0890639 28
3.4149117 3.3301466 0.91887349 31
3.4081011 3.3223443 0.74693274 32
3.4146278 3.3275449 0.57988191 37
3.4169371 3.3286328 0.41316387 31
3.4078965 3.3186672 0.24646384 38
3.4089978 3.3185802 0.081551686 38
3.1586607 3.0695188 -1.1691 4
nan nan nan 0
2.4817185 2.409997 -0.66437227 20
2.4547579 2.3829832 -0.53519762 17
2.3958683 2.3250036 -0.40463954 3
3.4131238 3.3110142 -0.41268241 57
3.1029861 3.0091035 -0.22377352 12
3.1072352 3.0121722 -0.074870817 64
3.4265454 3.3205533 1.2673873 36
3.4288278 3.3216047 1.0924356 29
3.4370935 3.3284497 0.92173308 33
3.433871 3.3241675 0.75005794 32
3.4404876 3.3294101 0.58231586 36
3.4392755 3.327075 0.41446859 30
3.4338179 3.3206353 0.24750707 38
3.434938 3.3205585 0.081897244 38
3.1589296 3.0484126 -1.1652203 4
nan nan nan 0
2.4971819 2.4081335 -0.6662786 21
2.4701719 2.3812549 -0.53676027 18
2.4003961 2.3131826 -0.40403107 3
3.4354227 3.3094471 -0.41398978 57
3.1134708 2.9982536 -0.22377352 11
3.1177309 3.0013077 -0.074870817 37
3.4520361 3.3219683 1.2725602 33
3.4544463 3.3231268 1.0969312 31
3.4628427 3.3300407 0.92554587 33
3.4596946 3.3258512 0.75318319 34
3.4628234 3.3276963 0.58414125 36
3.4652369 3.3288522 0.41620824 27
3.4561923 3.3190041 0.2482895 39
3.4609337 3.3223968 0.082242802 38
3.1625769 3.030684 -1.1626338 4
3.1271682 2.9957047 -0.99016023 3
2.5162077 2.4095867 -0.66913819 19
2.489171 2.382863 -0.53910416 17
2.4227982 2.3185146 -0.40646499 3
3.4577513 3.3077645 -0.41529712 55
3.1239173 2.9873674 -0.22377352 5
nan nan nan 0
3.4775782 3.3232458 1.2777332 35
3.476594 3.3211443 1.1003029 32
3.4886446 3.3314919 0.9293586 32
3.4855719 3.327395 0.75630844 35
3.4887795 3.3292935 0.58657521 38
3.4876478 3.3270504 0.41751295 27
3.4822109 3.3207033 0.24933273 38
