# .PCD v0.7 - Point Cloud Data file format
VERSION 0.7
FIELDS x y z intensity
SIZE 4 4 4 4
TYPE F F F F
COUNT 1 1 1 1
WIDTH 1371
HEIGHT 1
VIEWPOINT 0 0 0 1 0 0 0
POINTS 1371
DATA ascii
-2.0090492 0.92066294 -0.18999954 7
-2.463083 1.1292477 -0.13953243 2
-1.6660753 0.76419628 -0.031327069 4
-1.5360494 0.70488036 0.44229224 7
-1.5446121 0.70913613 0.38325158 6
-1.5914057 0.73095554 0.33266273 11
-1.5470295 0.71089989 0.26330161 6
-1.5678607 0.72080386 0.20688337 13
-1.5824113 0.72782785 0.148739 10
-1.5452331 0.71105462 0.08684916 8
-1.53786 0.70798707 0.028594924 11
-1.5784246 0.72833186 -0.45522478 12
-1.450231 0.66948658 -0.35964957 4
-1.8616877 0.85982621 -0.39080721 41
-1.8683224 0.86328608 -0.31955594 44
-1.8681684 0.86361068 -0.24765156 16
-2.0193858 0.93394285 -0.19130686 12
-2.4636574 1.1399354 -0.13979325 2
-1.6770079 0.77630764 -0.031588852 3
-1.5379622 0.71226764 0.44358552 7
-1.5465478 0.71657169 0.38437548 7
-1.5932977 0.73857039 0.3336159 11
-1.553499 0.72045124 0.26486424 6
-1.5698371 0.72836107 0.20749186 13
-1.584379 0.73544431 0.1491739 10
-1.5472703 0.71854722 0.087109968 7
-1.5353793 0.71335089 0.028594924 10
-1.5758727 0.73383725 -0.45522478 12
-1.4523017 0.67660236 -0.3607735 4
-1.8631237 0.868393 -0.39176041 44
-1.8697737 0.87188977 -0.32033727 43
-1.8696401 0.87222481 -0.24826005 16
-2.0116003 0.93887949 -0.19087109 17
-2.4687119 1.1527534 -0.14031486 2
-2.2178128 1.0360686 -0.042060297 9
-1.5354664 0.71763182 0.44358552 7
-1.5484506 0.72402948 0.38549939 6
-1.5951558 0.74620736 0.3345691 11
-1.5599205 0.73005629 0.26642683 14
-1.5672849 0.73383635 0.20749186 13
-1.5818022 0.74097031 0.1491739 10
-1.5447528 0.72394389 0.087109968 8
-1.5374063 0.72082829 0.028681314 11
-1.5733014 0.73933351 -0.45522478 12
-1.45434 0.6837405 -0.36189741 4
-1.860081 0.87489122 -0.39176041 39
-1.8711874 0.88051397 -0.32111859 42
-1.8665841 0.87874573 -0.24826005 15
-1.9902855 0.937406 -0.18912795 16
-2.4691901 1.1634921 -0.14057568 2
-2.2187045 1.0459356 -0.042147558 33
-1.5373205 0.72504741 0.44487876 7
-1.5459137 0.72943014 0.38549939 6
-1.5969799 0.75386614 0.33552229 11
-1.5707597 0.74182397 0.26877078 14
-1.569201 0.74142289 0.20810033 13
-1.5792061 0.74648732 0.1491739 10
-1.5467303 0.73146635 0.087370776 8
-1.5348809 0.72619045 0.028681314 10
-1.5707111 0.74482083 -0.45522478 12
-1.4475428 0.68672472 -0.3607735 4
-1.8614501 0.88348335 -0.39271358 43
-1.8681024 0.88704026 -0.32111859 44
-1.8635052 0.88525599 -0.24826005 14
-1.973505 0.93793344 -0.18782063 11
-2.4741323 1.1763923 -0.14109729 2
-2.233098 1.062264 -0.042496607 20
-1.5347804 0.73040932 0.44487876 7
-1.5477571 0.73691636 0.38662329 7
-1.5943387 0.75943607 0.33552229 11
-1.5726188 0.74942696 0.26955208 13
-1.5666034 0.74689585 0.20810033 13
-1.5810865 0.7541396 0.14960881 10
-1.5486737 0.73901129 0.087631583 7
-1.5368479 0.73369747 0.028767703 10
-1.5681016 0.75029922 -0.45522478 12
-1.4407423 0.68966973 -0.35964957 4
-1.8583548 0.88997567 -0.39271358 48
-1.8694485 0.89568967 -0.32189989 46
-1.8604039 0.8917554 -0.24826005 14
-1.9612367 0.94050908 -0.18694907 8
-2.4745128 1.1871814 -0.14135811 2
-2.2248693 1.0678892 -0.042409342 15
-1.5365752 0.73785293 0.446172 8
-1.5451753 0.74231458 0.38662329 6
-1.5961018 0.76712292 0.33647546 11
-1.5744442 0.757052 0.27033341 13
-1.5684589 0.75451118 0.20870881 13
-1.5784445 0.75965399 0.14960881 10
-1.5460848 0.74441266 0.087631583 8
-1.5387815 0.74122715 0.028854093 10
-1.5654731 0.7557683 -0.45522478 12
-1.433939 0.69257581 -0.35852566 4
-1.8596562 0.89859259 -0.39366677 48
-1.8707569 0.90435916 -0.32268122 42
-1.8572797 0.89824402 -0.24826005 13
-1.9713926 0.95385754 -0.1882564 11
-2.4793422 1.2001629 -0.14187972 2
-2.2256277 1.077828 -0.042496607 16
-1.5339903 0.74321204 0.446172 8
-1.546959 0.7498287 0.3877472 6
-1.5934143 0.7726897 0.33647546 11
-1.5762352 0.76469892 0.27111471 13
-1.5658156 0.75998151 0.20870881 13
-1.580264 0.76733494 0.15004371 10
-1.547968 0.75198686 0.087892391 7
-1.5406811 0.7487793 0.028940482 11
-1.5628254 0.7612282 -0.45522478 11
-1.427133 0.69544268 -0.35740176 4
-1.8609202 0.90722942 -0.39461994 45
-1.8675888 0.91088384 -0.32268122 43
-1.8541329 0.90472162 -0.24826005 15
-1.9949081 0.97384381 -0.19087109 7
-2.4841115 1.2131927 -0.14240134 2
-2.2263434 1.0877849 -0.042583872 15
-1.535726 0.75068331 0.4474653 7
-1.544332 0.75522405 0.3877472 6
-1.5951164 0.78040409 0.33742866 11
-1.5735563 0.77019632 0.27111471 13
-1.5676106 0.76762527 0.2093173 12
-1.5820491 0.77503777 0.15047863 10
-1.5498173 0.75958318 0.088153206 7
-1.5425467 0.75635368 0.029026872 11
-1.5601587 0.76667881 -0.45522478 12
-1.4203244 0.69827056 -0.35627785 4
-1.8621465 0.91588598 -0.39557317 40
-1.8688287 0.91957772 -0.32346252 39
-1.8554158 0.91338009 -0.24886853 16
-2.0093701 0.98960412 -0.1926142 6
-2.4843402 1.2240632 -0.14266214 2
-2.2270169 1.09776 -0.042671129 15
-1.5374279 0.75817555 0.44875854 7
-1.5416864 0.76061016 0.3877472 6
-1.5923826 0.78596729 0.33742866 11
-1.5752864 0.77787095 0.27189603 13
-1.5649215 0.77309257 0.2093173 13
-1.5837994 0.78276241 0.15091355 10
-1.5471566 0.76498842 0.088153206 8
-1.5443782 0.76395011 0.029113261 10
-1.5574731 0.77212012 -0.45522478 11
-1.4135138 0.7010594 -0.35515395 4
-1.8633347 0.9245621 -0.39652634 39
-1.8700312 0.92829156 -0.32424384 40
-1.8522162 0.91985112 -0.24886853 16
-2.0326681 1.0099096 -0.19522887 14
-2.484524 1.2349503 -0.14292295 2
-2.2231712 1.105527 -0.042671129 15
-1.534772 0.76353759 0.44875854 7
-1.5433838 0.76815796 0.38887113 7
-1.5896293 0.79152095 0.33742866 11
-1.5725614 0.78336495 0.27189603 13
-1.566655 0.78076404 0.20992577 13
-1.585515 0.79050869 0.15134846 10
-1.548945 0.77261305 0.088414013 7
-1.5417019 0.76933628 0.029113261 10
-1.5547682 0.77755201 -0.45522478 12
-1.4110579 0.70598918 -0.35515395 4
-1.8644855 0.93325776 -0.39747953 39
-1.8711951 0.93702471 -0.32502511 38
-1.8534313 0.92853397 -0.24947701 18
-2.0157714 1.0103034 -0.19392152 10
-2.4846611 1.2458533 -0.14318375 2
-2.2237675 1.1155223 -0.042758394 15
-1.5364143 0.77105665 0.45005178 7
-1.5406932 0.77354074 0.38887113 7
-1.5912428 0.79926813 0.33838186 11
-1.5742301 0.79106688 0.27267733 13
-1.5639201 0.78622794 0.20992577 12
-1.5827461 0.79603839 0.15134846 10
-1.5462387 0.7780152 0.088414013 8
-1.5434725 0.77696103 0.029199651 11
-1.5520447 0.78297442 -0.45522478 11
-1.4042355 0.70871526 -0.35403004 4
-1.8655976 0.94197249 -0.3984327 39
-1.872321 0.94577742 -0.32580644 39
-1.8546084 0.93723643 -0.2500855 18
-2.0077875 1.0150862 -0.19348575 4
-2.4847531 1.2567725 -0.14344457 2
-2.2243207 1.1255349 -0.042845655 15
-1.5380225 0.77859646 0.45134503 7
-1.5423299 0.78111529 0.38999504 7
-1.5884432 0.80481774 0.33838186 11
-1.5714592 0.79655713 0.27267733 13
-1.5655924 0.79392684 0.21053427 13
-1.5843998 0.80381191 0.15178336 9
-1.547966 0.78566766 0.088674821 7
-1.5452086 0.78460741 0.02928604 10
-1.5493021 0.7883873 -0.45522478 11
-1.4017531 0.71361262 -0.35403004 4
-1.866672 0.95070654 -0.3993859 39
-1.8734086 0.95454931 -0.32658774 40
-1.8513255 0.94370449 -0.2500855 20
-1.9909198 1.0152999 -0.19217841 15
-2.4847987 1.2677073 -0.14370537 2
-2.2203782 1.1332924 -0.042845655 15
-1.5352952 0.78396046 0.45134503 7
-1.5439327 0.78871059 0.39111891 6
-1.5899947 0.81259108 0.33933502 11
-1.5730662 0.80428594 0.27345866 13
-1.5628116 0.79938692 0.21053427 12
-1.5815843 0.80933762 0.15178336 10
-1.5452141 0.79106635 0.088674821 7
-1.5424604 0.78999639 0.02928604 11
-1.5465407 0.79379058 -0.45522478 11
-1.3949195 0.71627581 -0.35290614 3
-1.867708 0.95945942 -0.40033907 37
-1.8788501 0.96559781 -0.32815036 38
-1.8524338 0.95243037 -0.25069398 20
-1.9785051 1.0176867 -0.19130686 26
-2.4803584 1.2763733 -0.14370537 2
-2.2208538 1.1433245 -0.04293292 14
-1.5368433 0.79152632 0.4526383 7
-1.5455011 0.79632664 0.39224282 6
-1.5871484 0.81813627 0.33933502 10
-1.5702492 0.80977201 0.27345866 13
-1.5644221 0.80711275 0.21114275 12
-1.5831759 0.81713796 0.15221827 10
-1.54688 0.79874623 0.088935629 7
-1.544135 0.79767025 0.029372429 10
-1.5437605 0.7991842 -0.45522478 11
-1.3880845 0.71890002 -0.35178223 3
-1.8730636 0.97048926 -0.40224546 37
-1.8842369 0.97669566 -0.32971299 38
-1.8490978 0.95889086 -0.25069398 20
-1.9528337 1.0131178 -0.18912795 13
-2.4758878 1.2850236 -0.14370537 2
-2.2212858 1.1533732 -0.043020178 15
-1.538357 0.79911244 0.45393154 7
-1.5470351 0.8039633 0.39336672 6
-1.5886379 0.8259356 0.34028822 11
-1.5717945 0.81752723 0.27423996 14
-1.5659978 0.81485957 0.21175122 13
-1.5847321 0.82495928 0.15265319 10
-1.548511 0.80644739 0.089196436 8
-1.5413412 0.80305547 0.029372429 10
-1.5409614 0.80456799 -0.45522478 12
-1.3812481 0.72148532 -0.35065833 3
-1.8783646 0.98156792 -0.40415183 47
-1.8895694 0.98784298 -0.33127561 48
-1.8501372 0.96763963 -0.25130248 22
-1.9581121 1.0245467 -0.18999954 7
-2.4758112 1.2959738 -0.14396618 2
-2.2261038 1.1657585 -0.043194704 15
-1.5398364 0.80671883 0.45522478 7
-1.5485345 0.81162024 0.39449063 7
-1.5900921 0.83375531 0.34124142 11
-1.5733045 0.82530296 0.27502126 13
-1.5631438 0.8203209 0.21175122 13
-1.5818428 0.830486 0.15265319 9
-1.5456866 0.81184781 0.089196436 7
-1.5428126 0.8110255 0.029458819 10
-1.5380023 0.81021053 -0.45522478 11
-1.3785946 0.72654295 -0.35065833 3
-1.8790964 0.99073517 -0.40510502 36
-1.885936 0.994762 -0.33127561 59
-1.8465782 0.97441423 -0.25130248 17
-1.945534 1.0270659 -0.18912795 7
-2.4710445 1.3050394 -0.14396618 2
-2.2262363 1.1762452 -0.043281965 14
-1.5411395 0.8146143 0.45651805 7
-1.5455493 0.81729048 0.39449063 6
-1.5913641 0.84187293 0.34219459 11
-1.5746341 0.83337402 0.27580258 13
-1.5645128 0.82836688 0.21235971 13
-1.58319 0.83860976 0.15308809 10
-1.5471126 0.8198455 0.089457244 7
-1.5399722 0.81640595 0.029458819 10
-1.5308994 0.81330824 -0.45393154 12
-1.37605 0.73135072 -0.35065833 2
-1.8756266 0.99728841 -0.40510502 36
-1.8824522 1.0013391 -0.33127561 35
-1.8475467 0.98318535 -0.25191092 19
-1.9507304 1.0385324 -0.18999954 7
-2.4708812 1.3160042 -0.14422698 2
-2.2265286 1.1863599 -0.043369226 15
-1.5425485 0.8222608 0.4578113 7
-1.5469861 0.82497299 0.39561453 6
-1.5927464 0.849733 0.34314778 10
-1.5717155 0.83886546 0.27580258 13
-1.5659895 0.83616054 0.21296819 13
-1.5846466 0.84647793 0.153523 10
-1.5486451 0.82759434 0.089718051 8
-1.5415218 0.82413352 0.029545208 10
-1.5237937 0.81636631 -0.4526383 13
-1.3691945 0.73384804 -0.34953442 2
-1.872134 1.0038295 -0.40510502 38
-1.8789454 1.0079039 -0.33127561 39
-1.8441035 0.98962855 -0.25191092 19
-1.9558706 1.0500475 -0.19087109 7
-2.47507 1.3293465 -0.1447486 2
-2.226778 1.196491 -0.043456491 16
-1.539669 0.8276403 0.4578113 7
-1.5483879 0.83267552 0.39673844 6
-1.5897706 0.85528761 0.34314778 10
-1.5731263 0.84668714 0.27658388 13
-1.5630612 0.84162176 0.21296819 12
-1.5816821 0.85200423 0.153523 10
-1.5501425 0.83536381 0.089978859 8
-1.5430361 0.83188188 0.029631598 10
-1.5166854 0.81938463 -0.45134503 16
-1.3709106 0.74093944 -0.35065833 2
-1.8686186 1.0103583 -0.40510502 39
-1.8754157 1.0144566 -0.33127561 38
-1.8450027 0.99842161 -0.25251943 20
-1.9609538 1.0616112 -0.19174264 6
-2.4791961 1.3427339 -0.14527021 2
-2.2269831 1.2066381 -0.043543749 15
-1.5410168 0.83531147 0.45910454 7
-1.5497547 0.84039778 0.39786234 6
-1.5910896 0.86317217 0.34410098 10
-1.5745019 0.85452896 0.27736521 13
-1.5644754 0.84944081 0.21357667 13
-1.5830755 0.85989767 0.1539579 10
-1.5472171 0.84076977 0.089978859 8
-1.5445151 0.83965075 0.029717987 10
-1.5095747 0.82236338 -0.45005178 18
-1.3683159 0.74572033 -0.35065833 2
-1.8693897 1.0192243 -0.40605819 39
-1.8761989 1.0233616 -0.33205694 40
-1.8458625 1.0072329 -0.2531279 20
-1.9659801 1.0732229 -0.1926142 5
-2.4876406 1.3585595 -0.14605264 2
-2.2315321 1.2191982 -0.043718275 15
-1.5380917 0.84068543 0.45910454 7
-1.5468117 0.84580231 0.39786234 6
-1.5923731 0.87107646 0.34505415 11
-1.5715095 0.8600198 0.27736521 13
-1.565854 0.85727996 0.21418515 12
-1.5800643 0.86541837 0.1539579 10
-1.5486517 0.8485648 0.090239674 7
-1.5459585 0.84743994 0.029804377 10
-1.5024616 0.82530242 -0.44875854 17
-1.3657045 0.7504921 -0.35065833 2
-1.8658204 1.0257436 -0.40605819 38
-1.8726153 1.0299046 -0.33205694 41
-1.8466835 1.0160625 -0.25373638 20
-1.9709489 1.0848827 -0.19348575 10
-2.4872568 1.3696432 -0.14631344 2
-2.2316415 1.2293926 -0.04380554 16
-1.5351477 0.84604931 0.45910454 7
-1.5481164 0.85354894 0.39898625 6
-1.5893227 0.87662959 0.34505415 11
-1.5728217 0.86788613 0.27814651 13
-1.5671965 0.86513901 0.21479362 12
-1.5813941 0.87333661 0.15439282 9
-1.5456802 0.85396546 0.090239674 7
-1.5473665 0.85524964 0.029890768 10
-1.4953464 0.82820183 -0.4474653 17
-1.3545533 0.75053221 -0.34841052 2
-1.8665217 1.0346298 -0.40701142 38
-1.8733277 1.0388299 -0.33283821 39
-1.8431256 1.0225024 -0.25373638 23
-1.9802155 1.0990071 -0.19479308 8
-2.4824607 1.378317 -0.14631344 2
-2.2317069 1.2396024 -0.043892797 16
-1.5364069 0.85374874 0.46039781 7
-1.5451276 0.85894769 0.39898625 6
-1.5905427 0.8845576 0.34600735 10
-1.5697827 0.87337101 0.27814651 13
-1.5685035 0.87301785 0.21540211 12
-1.5783359 0.87885135 0.15439282 9
-1.5426899 0.85935569 0.090239674 7
-1.5443717 0.86064577 0.029890768 10
-1.4924463 0.83341652 -0.4474653 16
-1.3434187 0.7505036 -0.34616271 2
-1.8671831 1.0435334 -0.40796459 38
-1.8740007 1.047773 -0.33361953 42
-1.8438764 1.0313524 -0.25434485 21
-1.9807141 1.108345 -0.19522887 7
-2.4819915 1.389413 -0.14657426 2
-2.2317278 1.2498277 -0.043980062 16
-1.5334173 0.8591066 0.46039781 7
-1.54637 0.86671805 0.40011016 6
-1.5917265 0.89250475 0.34696054 10
-1.5710317 0.88126141 0.2789278 13
-1.5654466 0.87848765 0.21540211 12
-1.5796019 0.88679379 0.15482773 10
-1.5396808 0.86473542 0.090239674 7
-1.5457166 0.86848021 0.029977158 10
-1.4895281 0.83862108 -0.4474653 15
-1.3238108 0.7456246 -0.34166712 2
-1.8635291 1.0500448 -0.40796459 39
-1.870332 1.0543079 -0.33361953 39
-1.8445878 1.0402204 -0.25495335 22
-1.9811714 1.1176997 -0.19566463 6
-2.4771266 1.3980684 -0.14657426 2
-2.2317047 1.2600682 -0.044067323 16
-1.5346146 0.8668294 0.46169105 7
-1.5475768 0.87450743 0.40123406 6
-1.5928742 0.90047103 0.34791371 10
-1.5722446 0.88917106 0.27970913 13
-1.5666901 0.88639057 0.21601059 12
-1.5808316 0.89475584 0.15526263 10
-1.540998 0.87256491 0.090500481 7
-1.5426755 0.87387049 0.029977158 10
-1.4865917 0.84381545 -0.4474653 15
-1.3296731 0.75505251 -0.3439149 2
-1.8641202 1.0589677 -0.40891778 38
-1.870934 1.0632704 -0.33440083 39
-1.8452601 1.0491058 -0.2555618 23
-1.9815874 1.1270711 -0.19610043 7
-2.4765708 1.4091759 -0.14683506 2
-2.2316377 1.2703239 -0.044154584 16
-1.5357765 0.87457103 0.46298429 7
-1.548748 0.88231581 0.40235797 6
-1.5897212 0.90602565 0.34791371 10
-1.5691313 0.8946538 0.27970913 13
-1.5635865 0.89185393 0.21601059 12
-1.5820251 0.90273714 0.15569754 10
-1.5379428 0.87793875 0.090500481 8
-1.5438031 0.88199872 0.030063547 10
-1.483489 0.84925836 -0.4474653 16
-1.3395802 0.76718479 -0.34728661 2
-1.8644853 1.068233 -0.40987095 39
-1.8713089 1.0725764 -0.33518216 40
-1.8457078 1.0583307 -0.2561703 23
-1.9817637 1.1368048 -0.1965362 7
-2.4713895 1.4182435 -0.14683506 2
-2.2356379 1.2834728 -0.044329111 17
-1.5367489 0.88259941 0.46427754 7
-1.5455037 0.88798636 0.40235797 6
-1.5906451 0.91429216 0.34886691 10
-1.570123 0.90286076 0.28049043 13
-1.5646088 0.90005344 0.21661907 12
-1.5830228 0.91101402 0.15613246 9
-1.5390419 0.88606095 0.090761289 7
-1.5407149 0.88738221 0.030063547 10
-1.4805155 0.85443151 -0.4474653 27
-1.3453326 0.77672815 -0.34953442 2
-1.8649955 1.0771897 -0.41082415 39
-1.8718295 1.0815725 -0.33596346 40
-1.8462988 1.0672505 -0.25677878 23
-1.986407 1.1487024 -0.19740775 8
-2.4707458 1.4293622 -0.14709587 2
-2.2354705 1.2937728 -0.044416368 16
-1.5378385 0.89037836 0.46557081 7
-1.5466105 0.89581764 0.40348187 6
-1.5916909 0.92229986 0.34982011 10
-1.5712343 0.91081274 0.28127176 13
-1.5614576 0.90550947 0.21661907 12
-1.5841416 0.91903377 0.15656736 9
-1.5402582 0.89393425 0.091022097 7
-1.5419314 0.89526504 0.030149937 10
-1.4775239 0.85959423 -0.4474653 37
-1.3678778 0.79612392 -0.35627785 2
-1.8654658 1.0861629 -0.41177732 39
-1.8723104 1.0905857 -0.33674479 39
-1.8425621 1.0736886 -0.25677878 24
-1.9909917 1.1606464 -0.19827931 10
-2.4700549 1.4404935 -0.14735669 2
-2.2352591 1.3040874 -0.044503633 17
-1.5388925 0.8981756 0.46686405 7
-1.5434741 0.90121084 0.40348187 6
-1.5927 0.93032593 0.35077327 10
-1.5723095 0.91878349 0.28205305 13
-1.5625718 0.91345906 0.21722755 12
-1.5852237 0.92707241 0.15700227 9
-1.5371284 0.89930528 0.091022097 7
-1.5387969 0.90064204 0.030149937 10
-1.4745145 0.86474657 -0.4474653 45
-1.3440796 0.78856683 -0.35065833 2
-1.8658959 1.0951524 -0.41273054 38
-1.8727506 1.0996151 -0.33752608 40
-1.8430824 1.0826275 -0.25738728 24
-1.9955169 1.1726363 -0.19915086 9
-2.469316 1.4516371 -0.14761749 2
-2.2350028 1.3144164 -0.044590894 16
-1.5399108 0.90599108 0.46815729 7
-1.5445178 0.90906441 0.40460578 6
-1.5936724 0.93837023 0.35172647 10
-1.5733479 0.92677277 0.28283435 13
-1.5636493 0.92142749 0.21783602 13
-1.581978 0.9326002 0.15700227 10
-1.5382808 0.90720189 0.091282904 7
-1.5399493 0.9085483 0.030236326 10
-1.4714869 0.86988831 -0.4474653 41
-1.3664801 0.80813414 -0.35740176 2
-1.8662859 1.104158 -0.41368371 39
-1.8731508 1.1086611 -0.33830741 42
-1.8435622 1.091583 -0.25799572 23
-1.9999827 1.1846719 -0.20002241 8
-2.4685295 1.4627935 -0.1478783 2
-2.239002 1.3273088 -0.04476542 17
-1.5408931 0.91382444 0.46945056 7
-1.5455252 0.91693616 0.40572968 6
-1.5946079 0.94643259 0.35267967 10
-1.5743498 0.93478048 0.28361568 13
-1.5646902 0.92941445 0.21844451 12
-1.5829951 0.94066125 0.15743718 10
-1.5351046 0.91256595 0.091282904 7
-1.5367686 0.91391814 0.030236326 10
-1.4684415 0.87501943 -0.4474653 18
-1.3845756 0.8253727 -0.36302131 2
-1.8666362 1.11318 -0.41463691 39
-1.8735106 1.117723 -0.33908871 42
-1.8440024 1.1005551 -0.25860423 24
-2.0043888 1.1967529 -0.200894 7
-2.4719818 1.4765221 -0.14839992 2
-2.2386463 1.3376803 -0.044852681 18
-1.537694 0.91919768 0.46945056 6
-1.5464964 0.92482603 0.40685359 6
-1.5955067 0.95451289 0.35363284 10
-1.5710771 0.9402703 0.28361568 13
-1.5614365 0.93487066 0.21844451 12
-1.5839751 0.9487406 0.1578721 9
-1.536193 0.92048538 0.091543712 7
-1.5378569 0.92184722 0.030322714 9
-1.473659 0.88511366 -0.45005178 11
-1.8828248 1.1313152 -0.49788988 7
-1.8711526 1.1247464 -0.41654328 39
-1.87383 1.126801 -0.33987004 42
-1.8444021 1.1095433 -0.2592127 25
-2.0130022 1.2114474 -0.20220132 6
-2.4753683 1.4902928 -0.14892153 2
-2.238246 1.3480659 -0.044939946 18
-1.5386127 0.92705214 0.47074381 7
-1.5474313 0.93273371 0.40797749 6
-1.5963684 0.96261108 0.35458606 10
-1.5720141 0.94829953 0.28439698 13
-1.5624127 0.9428795 0.21905299 12
-1.5806538 0.95426393 0.1578721 9
-1.5372448 0.92842346 0.091804519 7
-1.5389086 0.92979491 0.030409103 9
-1.4788239 0.89525479 -0.4526383 5
-1.8871992 1.1429284 -0.50013769 31
-1.8714132 1.1338146 -0.4174965 39
-1.8741089 1.135895 -0.34065136 39
-1.8447615 1.1185479 -0.25982118 24
-2.0172787 1.2236332 -0.20307288 5
-2.4786885 1.5041051 -0.14944315 2
-2.2378001 1.3584648 -0.045027204 18
-1.5394957 0.9349243 0.47203705 7
-1.5483299 0.94065934 0.4091014 6
-1.5971929 0.97072673 0.35553923 10
-1.5729142 0.95634681 0.2851783 13
-1.563352 0.95090663 0.21966147 12
-1.5815682 0.96236491 0.158307 9
-1.5339947 0.93378377 0.091804519 7
-1.5397599 0.93803 0.030495493 9
-1.4920228 0.91073453 -0.4578113 7
-1.8788395 1.1472987 -0.49901381 32
-1.8714334 1.1432246 -0.41844967 40
-1.8741467 1.1453315 -0.34143266 40
-1.8406494 1.1253017 -0.25982118 25
-2.0255282 1.2388152 -0.20438023 5
-2.4859364 1.5209975 -0.15022558 2
-2.2370701 1.3692676 -0.045114469 17
-1.5401777 0.94308269 0.47333032 7
-1.5490264 0.94887275 0.4102253 6
-1.5936244 0.97657424 0.35553923 10
-1.5736088 0.96468657 0.2859596 13
-1.5640868 0.95922476 0.22026995 12
-1.582276 0.97075999 0.15874191 9
-1.5348175 0.94201183 0.092065327 7
-1.536476 0.94339907 0.030495493 9
-1.4806072 0.91087562 -0.45522478 8
-1.89142 1.1640645 -0.5035094 26
-1.8716112 1.1523237 -0.41940287 40
-1.8743426 1.1544565 -0.34221399 39
-1.8409353 1.1343235 -0.26042965 22
-2.0339119 1.2537189 -0.20568755 5
-2.4848623 1.5322868 -0.15048639 2
-2.2365315 1.3796927 -0.04520173 17
-1.5409865 0.95098972 0.47462356 7
-1.5457047 0.95427412 0.4102253 6
-1.5943819 0.98471028 0.35649243 10
-1.5744332 0.97276944 0.2867409 12
-1.5649506 0.96728808 0.22087842 12
-1.5788779 0.97627723 0.15874191 9
-1.5357662 0.94999039 0.092326134 7
-1.5374248 0.95138741 0.030581882 9
-1.4527894 0.90076762 -0.4474653 14
-1.8914853 1.1732277 -0.50463331 17
-1.8717479 1.1614375 -0.42035604 40
-1.8744972 1.1635967 -0.34299526 39
-1.8411808 1.1433609 -0.26103815 23
-2.0422163 1.2686963 -0.20699489 8
-2.4667754 1.5330442 -0.14970396 2
-2.2359474 1.3901308 -0.045288995 17
-1.5376575 0.95636302 0.47462356 7
-1.546501 0.96223766 0.41134921 6
-1.5951018 0.99286342 0.35744563 10
-1.5752203 0.98086977 0.28752223 13
-1.5657769 0.97536874 0.22148691 12
-1.5796877 0.98441702 0.15917681 9
-1.536678 0.95798695 0.092586942 7
-1.5383364 0.95939356 0.030668272 9
-1.4209646 0.88791722 -0.43841249 18
-1.8915099 1.1824057 -0.50575721 14
-1.8718439 1.1705666 -0.42130923 41
-1.8746108 1.172752 -0.34377658 39
-1.8413852 1.1524135 -0.2616466 25
-2.0504403 1.2837468 -0.20830221 14
-2.4910312 1.5601984 -0.15152963 2
-2.2353175 1.4005816 -0.045376252 16
-1.5384023 0.96428972 0.4759168 7
-1.5472605 0.97021842 0.41247311 6
-1.5957842 1.0010337 0.3583988 10
-1.5759699 0.98898739 0.28830352 13
-1.566566 0.9834671 0.22209539 11
-1.58046 0.99257421 0.15961173 9
-1.5375526 0.96600139 0.092847757 6
-1.534978 0.96475762 0.030668272 9
-1.4219435 0.89544559 -0.43970576 15
-1.8914931 1.1915978 -0.50688112 22
-1.8677465 1.1770934 -0.42130923 39
-1.8746833 1.1819223 -0.34455788 38
-1.8415492 1.1614815 -0.2622551 24
-2.0543721 1.2962122 -0.20917377 11
-2.4686804 1.5582237 -0.15048639 2
-2.238869 1.4137141 -0.045550779 17
-1.5350268 0.9696539 0.4759168 7
-1.5438644 0.97561347 0.41247311 6
-1.5964291 1.0092206 0.35935199 10
-1.5766819 0.99712223 0.28908485 13
-1.5673172 0.99158275 0.22270387 12
-1.5769856 0.99808502 0.15961173 9
-1.5383899 0.97403365 0.093108565 7
-1.5358244 0.97278482 0.030754661 9
-1.4269651 0.90557957 -0.44229224 14
-1.8914354 1.2008045 -0.50800502 31
-1.8677696 1.1862373 -0.4222624 39
-1.8747147 1.1911075 -0.34533921 39
-1.8416719 1.1705649 -0.26286358 24
-2.0540383 1.306048 -0.20960957 13
-2.4842913 1.580231 -0.15179043 2
-2.2381384 1.4242047 -0.04563804 17
-1.5357071 0.97759992 0.47721007 7
-1.5445589 0.98361361 0.41359702 6
-1.5928965 1.0147871 0.35935199 10
-1.5773565 1.0052739 0.28986615 13
-1.5680313 0.99971575 0.22331235 12
-1.5776917 1.0062622 0.16004664 9
-1.5391899 0.98208344 0.093369372 6
-1.5366335 0.98082966 0.030841051 9
-1.4360021 0.91836166 -0.446172 10
-1.8913363 1.2100252 -0.50912893 34
-1.8677516 1.1953958 -0.42321563 39
-1.8747044 1.200307 -0.34612051 38
-1.8417537 1.1796631 -0.26347208 22
-2.0494666 1.3132101 -0.20960957 14
nan nan nan 0
-2.2373617 1.4347068 -0.045725301 19
-1.5363505 0.98556238 0.47850332 7
-1.5452164 0.99163043 0.41472092 6
-1.593475 1.0229928 0.36030519 9
-1.5779933 1.0134428 0.29064748 13
-1.5687073 1.0078657 0.22392082 12
-1.5783597 1.0144564 0.16048154 9
-1.5399524 0.99015075 0.09363018 6
-1.5374048 0.98889208 0.03092744 9
-1.4490269 0.93383425 -0.45134503 12
-1.8911958 1.2192597 -0.51025283 39
-1.8676922 1.2045685 -0.4241688 39
-1.8788029 1.2121985 -0.34768313 39
-1.845964 1.1914675 -0.26468903 24
-2.0490546 1.3230578 -0.21004534 14
-2.1921825 1.4160166 -0.13431628 6
-2.2407377 1.4479345 -0.045899823 18
-1.5369571 0.99354124 0.47979656 7
-1.5458367 0.99966389 0.41584483 6
-1.5940155 1.0312148 0.36125836 10
-1.5785923 1.0216279 0.2914288 12
-1.5651797 1.0133353 0.22392082 11
-1.5789897 1.0226674 0.16091645 9
-1.5406771 0.99823523 0.093890987 7
-1.5381387 0.99697167 0.03101383 9
-1.4457585 0.93888652 -0.45134503 16
-1.8910136 1.2285079 -0.51137674 40
-1.8717071 1.2164299 -0.42607516 39
-1.8787005 1.2214414 -0.34846446 38
-1.8459544 1.2006099 -0.26529753 25
-2.0444238 1.3302022 -0.21004534 10
-2.1537478 1.4018688 -0.1322298 12
-2.2398593 1.4584754 -0.045987088 17
-1.5375267 1.0015365 0.48108983 7
-1.5464196 1.0077137 0.4169687 6
-1.5945179 1.0394533 0.36221156 9
-1.5791531 1.0298297 0.2922101 13
-1.5657896 1.0215043 0.22452931 11
-1.5795816 1.0308952 0.16135137 8
-1.5413643 1.0063368 0.094151795 7
-1.5388348 1.0050684 0.031100219 9
-1.4222652 0.93070418 -0.44487876 26
-1.8907903 1.23777 -0.51250064 37
-1.8715558 1.2256451 -0.42702836 40
-1.8785565 1.2306982 -0.34924576 40
-1.8459029 1.2097664 -0.26590598 25
-2.0439336 1.3400617 -0.21048112 11
-2.1070888 1.3819939 -0.12962171 16
-2.2389345 1.4690274 -0.046074349 17
-1.5380591 1.0095477 0.4823831 7
-1.5469652 1.0157797 0.41809264 6
-1.5949823 1.0477074 0.36316475 10
-1.5755486 1.0353358 0.2922101 12
-1.5663613 1.0296899 0.22513779 11
-1.5801353 1.0391396 0.16178627 8
-1.5420136 1.0144553 0.094412602 7
-1.5353171 1.0104339 0.031100219 9
-1.4109433 0.93034559 -0.44229224 109
-1.894592 1.2497277 -0.51474845 38
-1.8713627 1.2348739 -0.42798153 40
-1.8783705 1.2399689 -0.35002708 39
-1.8458102 1.2189373 -0.26651448 23
-2.0392435 1.3471881 -0.21048112 12
-2.0939205 1.3838345 -0.1291001 10
-2.2421331 1.482348 -0.046248872 18
-1.5385542 1.0175747 0.48367634 7
-1.5474734 1.0238619 0.41921654 6
-1.5954083 1.0559777 0.36411792 10
-1.5760428 1.0435557 0.2929914 12
-1.5668949 1.0378919 0.22574626 11
-1.5806506 1.0474005 0.16222119 8
-1.5426248 1.0225908 0.09467341 6
-1.5359471 1.0185498 0.031186609 9
-1.3996415 0.92991954 -0.43970576 150
-1.8942757 1.2590303 -0.51587236 39
-1.8711284 1.2441164 -0.42893475 42
-1.8781428 1.249253 -0.35080835 41
-1.8456757 1.2281221 -0.26712295 25
-2.0386751 1.3570584 -0.21091689 13
-2.0766089 1.3828324 -0.12831768 9
-2.241106 1.4929371 -0.046336137 18
-1.539012 1.0256175 0.48496959 7
-1.5479436 1.0319599 0.42034045 6
-1.595796 1.0642637 0.36507112 9
-1.5764987 1.0517915 0.29377273 12
-1.5673904 1.0461102 0.22635476 11
-1.5811274 1.0556774 0.1626561 8
-1.5431982 1.0307425 0.094934218 6
-1.5363599 1.0269507 0.031273 8
-1.3922106 0.9323557 -0.43841249 157
-1.8936961 1.2686765 -0.51699626 38
-1.870633 1.2536985 -0.42988792 39
-1.8776536 1.2588787 -0.35158968 39
-1.8452836 1.237643 -0.26773143 23
-2.0378237 1.3672965 -0.21135268 14
-2.0590889 1.3820862 -0.12753525 4
-2.2439201 1.5067151 -0.046510659 19
-1.5392518 1.0339445 0.48626286 7
-1.5481948 1.0403438 0.42146435 6
-1.595958 1.0728436 0.36602432 10
-1.5767313 1.0603185 0.29455402 12
-1.5676636 1.054618 0.22696324 11
-1.5772475 1.0614655 0.1626561 8
-1.5435519 1.0391803 0.095195025 6
-1.5369123 1.0351001 0.031359389 8
-1.3809403 0.93180674 -0.435826 138
-1.8932942 1.2780049 -0.51812023 38
-1.8703132 1.2629675 -0.43084112 39
-1.8773398 1.2681895 -0.35237098 39
-1.845064 1.2468554 -0.2683399 25
-2.0330384 1.3744015 -0.21135268 15
-2.04598 1.3836708 -0.12701364 10
-2.2427876 1.5173398 -0.04659792 19
-1.5356334 1.0393112 0.48626286 7
-1.5485883 1.0484731 0.42258826 6
-1.5922034 1.078408 0.36602432 9
-1.5771089 1.068586 0.29533535 12
-1.5639726 1.0600837 0.22696324 11
-1.5776554 1.0697601 0.163091 8
-1.5440474 1.0473648 0.095455833 6
-1.5374265 1.0432657 0.031445779 9
-1.373685 0.93390596 -0.43453273 47
-1.8928503 1.2873458 -0.51924407 39
-1.8740094 1.2750103 -0.43274748 38
-1.8769847 1.2775139 -0.3531523 39
-1.848905 1.2588745 -0.26955688 25
-2.0323453 1.3842937 -0.21178845 12
-2.0328848 1.385181 -0.12649202 15
-2.2416079 1.5279751 -0.046685185 18
-1.5359864 1.0473862 0.4875561 7
-1.5489438 1.0566177 0.42371216 6
-1.5924835 1.086726 0.36697748 9
-1.5733691 1.0740848 0.29533535 12
-1.564361 1.0683354 0.22757173 11
-1.5780245 1.0780704 0.16352591 8
-1.5403819 1.0527482 0.095455833 6
-1.5379024 1.0514475 0.031532165 8
-1.3624473 0.93323642 -0.43194625 13
-1.8923641 1.2966992 -0.52036798 36
-1.8735958 1.2843192 -0.43370065 39
-1.8765866 1.2868507 -0.3539336 41
-1.848592 1.2681284 -0.27016535 25
-2.0275006 1.3913796 -0.21178845 11
-2.0239208 1.3894426 -0.12623121 13
-2.2445028 1.5414507 -0.046859708 18
-1.536302 1.0554763 0.48884934 7
-1.5492613 1.0647779 0.42483607 6
-1.592725 1.095059 0.36793068 9
-1.5736793 1.082369 0.29611665 12
-1.5647109 1.0766027 0.2281802 11
-1.5742519 1.0835721 0.16352591 8
-1.5408102 1.0609504 0.09571664 6
-1.5342227 1.0568093 0.031532165 8
-1.3552063 0.93524331 -0.43065301 6
-1.8918353 1.3060647 -0.52149189 38
-1.8731402 1.2936409 -0.43465388 40
-1.8761463 1.2962008 -0.35471493 39
-1.8482368 1.277395 -0.27077383 25
-2.0226316 1.3984483 -0.21178845 10
-2.0149517 1.3936584 -0.12597041 15
-2.2432196 1.5521207 -0.046946973 18
-1.5365796 1.0635815 0.49014261 6
-1.5495405 1.0729527 0.42595997 6
-1.5929278 1.1034068 0.36888388 9
-1.5739509 1.0906684 0.29689795 12
-1.5650219 1.0848854 0.22878867 11
-1.5745529 1.0918993 0.16396083 8
-1.5370975 1.0663226 0.09571664 6
-1.5346316 1.0650086 0.031618554 8
-1.371761 0.95375389 -0.43711925 17
-1.8952644 1.3182244 -0.5237397 39
-1.8726418 1.3029747 -0.43560702 39
-1.8756638 1.3055631 -0.35549623 38
-1.8478395 1.2866747 -0.27138233 25
-2.0136507 1.4026531 -0.21135268 10
-2.0059781 1.3978287 -0.12570959 11
-2.2418892 1.5628004 -0.047034234 19
-1.5368193 1.0717013 0.49143586 7
-1.5497816 1.0811427 0.42708388 6
-1.5890664 1.1089604 0.36888388 9
-1.5741836 1.0989828 0.29767928 11
-1.5652941 1.0931833 0.22939716 11
-1.574815 1.1002415 0.16439573 8
-1.5374585 1.0745419 0.095977448 6
-1.5350019 1.0732236 0.031704944 8
-1.3802912 0.96684939 -0.440999 14
-1.8946414 1.327628 -0.5248636 39
-1.8761204 1.3151382 -0.43751341 39
-1.8791819 1.3177736 -0.35705885 40
-1.8473995 1.295967 -0.27199078 23
-2.0005877 1.403951 -0.21048112 10
-1.9969999 1.4019535 -0.12544879 12
-2.2446024 1.5763627 -0.047208756 19
-1.537021 1.0798358 0.4927291 7
-1.5499845 1.0893472 0.42820778 6
-1.5892011 1.1173235 0.36983705 9
-1.5743773 1.1073121 0.29846057 11
-1.5655274 1.1014962 0.23000564 11
-1.5750382 1.1085989 0.16483064 8
-1.5377811 1.0827768 0.096238256 6
-1.5312463 1.0785751 0.031704944 8
-1.3926926 0.98280072 -0.446172 15
-1.897956 1.339853 -0.52711141 39
-1.875528 1.3245107 -0.43846661 40
-1.8786042 1.3271747 -0.35784018 43
-1.8469174 1.3052722 -0.27259928 24
-1.9916077 1.4080504 -0.21004534 7
-1.9920939 1.4089158 -0.12544879 11
-2.2431674 1.5870758 -0.047296021 19
-1.5411271 1.090775 0.49531561 7
-1.5501486 1.0975664 0.42933169 6
-1.5892963 1.1257012 0.37079024 9
-1.5745322 1.1156561 0.2992419 12
-1.5657221 1.1098242 0.23061413 11
-1.5752221 1.1169713 0.16526555 8
-1.5380647 1.0910268 0.096499063 6
-1.531549 1.0868068 0.031791333 8
-1.3971267 0.99325329 -0.44875854 16
-1.8972377 1.3492936 -0.52823532 36
-1.8748926 1.333895 -0.43941984 45
-1.8779836 1.3365875 -0.35862145 61
-1.8463926 1.3145895 -0.27320775 23
-1.9785664 1.4092145 -0.20917377 7
-1.9830972 1.4129634 -0.12518798 11
-2.2457559 1.6006998 -0.047470544 19
-1.5412426 1.0989519 0.49660885 7
-1.5502745 1.1058 0.4304556 6
-1.5893527 1.1340929 0.37174344 9
-1.5786672 1.126884 0.3008045 12
-1.5658773 1.1181669 0.2312226 10
-1.5713135 1.122463 0.16526555 7
-1.5423721 1.1021955 0.097020686 6
-1.5318129 1.0950536 0.031877723 8
-1.4015043 1.0037485 -0.45134503 14
-1.8964767 1.3587456 -0.52935922 24
-1.8742143 1.3432904 -0.440373 47
-1.8773203 1.3460127 -0.35940278 57
-1.8498582 1.3268117 -0.2744247 22
-1.965541 1.4103049 -0.20830221 7
-1.978153 1.4198772 -0.12518798 11
-2.2482762 1.6143608 -0.04764507 22
-1.54132 1.1071429 0.4979021 7
-1.5503616 1.1140478 0.4315795 6
-1.5893699 1.1424987 0.37269661 9
-1.5787334 1.1352708 0.30158582 12
-1.5659933 1.1265241 0.23183107 11
-1.5714289 1.1308504 0.16570047 7
-1.5506724 1.1163244 0.097803116 6
-1.5320379 1.1033155 0.031964112 8
-1.401909 1.0114605 -0.4526383 12
-1.8917222 1.3653573 -0.52935922 26
-1.8734934 1.352698 -0.4413262 44
-1.8766137 1.3554493 -0.3601841 45
-1.8492382 1.3361673 -0.27503321 21
-1.9727169 1.4259111 -0.20960957 7
-1.9731847 1.4267735 -0.12518798 11
-2.2466781 1.6251286 -0.047732327 19
-1.5413587 1.1153479 0.49919537 6
-1.5504098 1.1223096 0.43270341 6
-1.5893475 1.1509185 0.37364981 9
-1.5787606 1.1436721 0.30236712 12
-1.5660701 1.1348958 0.23243956 10
-1.5715046 1.1392524 0.16613537 7
-1.5548503 1.1275933 0.098324731 13
-1.5322238 1.1115923 0.032050502 8
-1.4022768 1.0191877 -0.45393154 11
-1.8869448 1.3719522 -0.52935922 24
-1.8687603 1.3592294 -0.4413262 37
-1.8558974 1.350369 -0.35705885 16
-1.8525877 1.3484554 -0.27625015 23
-1.9757807 1.4386523 -0.21048112 9
-1.9681922 1.4336524 -0.12518798 11
-2.2490726 1.6388495 -0.047906853 19
-1.5413592 1.1235664 0.50048864 7
-1.5504193 1.1305853 0.43382731 5
-1.5892857 1.1593519 0.374603 9
-1.578748 1.1520873 0.30314845 11
-1.5661074 1.1432817 0.23304804 10
-1.5675184 1.1447312 0.16613537 7
-1.5630006 1.1418501 0.099107154 13
-1.5323706 1.1198837 0.032136895 8
-1.3987105 1.0240762 -0.45393154 10
-1.8664222 1.3670152 -0.5248636 15
-1.8402482 1.3483384 -0.43560702 18
-1.8352396 1.3451608 -0.3539336 9
-1.8518715 1.3578484 -0.27685863 23
-1.9787797 1.4514323 -0.21135268 9
-1.9631759 1.440514 -0.12518798 11
-2.2473679 1.6496485 -0.047994114 18
-1.5413207 1.1317985 0.50178188 7
-1.55039 1.1388747 0.43495122 6
-1.5891843 1.167799 0.37555617 9
-1.578696 1.1605161 0.30392975 12
-1.5661051 1.1516815 0.23365653 10
-1.5675253 1.1531475 0.16657028 7
-1.5670484 1.1532183 0.099628769 13
-1.5324781 1.1281898 0.032223284 8
-1.3951272 1.0289525 -0.45393154 10
-1.8537982 1.3677369 -0.52261579 14
-1.8197341 1.3430949 -0.43179429 15
-1.8106681 1.3368919 -0.35002708 6
-1.8551044 1.3702013 -0.27807558 23
-1.9817132 1.4642507 -0.21222423 8
-1.9581356 1.4473581 -0.12518798 11
-2.2456155 1.6604552 -0.048081376 19
-1.5412437 1.140044 0.50307512 7
-1.5503215 1.1471775 0.43607512 6
-1.5890434 1.1762594 0.37650937 9
-1.5786043 1.1689587 0.30471104 11
-1.5660634 1.1600955 0.234265 10
-1.5714946 1.1645434 0.1674401 7
-1.5670246 1.1616548 0.099889576 13
-1.5323479 1.1367775 0.032309674 8
-1.3874701 1.0311778 -0.4526383 11
-1.837043 1.3658017 -0.51924407 10
-1.8069224 1.3438971 -0.42988792 12
-1.7819828 1.3258317 -0.34533921 5
-1.8540512 1.3799547 -0.27868408 20
-1.9803283 1.474479 -0.21266001 9
-1.9528176 1.4545252 -0.12518798 12
-2.2475321 1.6746488 -0.048255898 19
-1.5409273 1.1485718 0.50436836 7
-1.5500124 1.1557643 0.43719903 5
-1.5886557 1.1850103 0.37746257 9
-1.5782673 1.1776903 0.30549237 11
-1.5657778 1.1687962 0.23487347 10
-1.5712068 1.1732757 0.16787501 7
-1.5667566 1.1703787 0.10015038 13
-1.532375 1.145112 0.032396063 8
-1.3915949 1.0418038 -0.45522478 11
-1.8166655 1.3605236 -0.51474845 28
-1.8061484 1.3531394 -0.43084112 28
-1.808959 1.3557379 -0.35158968 9
-1.8571647 1.3923723 -0.27990103 18
-1.9871237 1.4903483 -0.21396735 10
-1.9517225 1.4643296 -0.12544879 12
-2.241673 1.6824839 -0.048255898 20
-1.540771 1.1568435 0.50566161 7
-1.5498642 1.1640939 0.43832293 6
-1.5884339 1.1934971 0.37841576 9
-1.5780946 1.1861596 0.30627367 11
-1.5656551 1.1772372 0.23548196 10
-1.5710822 1.1817473 0.16830991 7
-1.5666516 1.1788428 0.10041119 12
-1.5363568 1.1564672 0.032568842 8
-1.3956624 1.052471 -0.4578113 11
-1.8235738 1.375659 -0.51812023 10
-1.7857426 1.3476093 -0.42702836 8
-1.8199816 1.3739463 -0.35471493 9
-1.8562535 1.4018373 -0.28050953 20
-1.9779351 1.4942733 -0.21353158 10
-1.9465992 1.4711335 -0.12544879 12
-2.2357862 1.6902986 -0.048255898 20
-1.5405756 1.1651282 0.50695485 7
-1.5496764 1.1724364 0.43944681 6
-1.5920855 1.2049587 0.38032213 9
-1.5778819 1.1946421 0.307055 11
-1.5654924 1.1856916 0.23609044 10
-1.5709178 1.1902323 0.16874482 7
-1.5665064 1.1873202 0.100672 13
-1.5362943 1.1648433 0.032655232 8
-1.3919802 1.0573364 -0.4578113 11
-1.8497944 1.4055976 -0.52711141 26
-1.8279182 1.3894778 -0.43846661 15
-1.8426926 1.4012159 -0.3601841 15
-1.8592486 1.4143177 -0.28172651 20
-1.9727072 1.5011684 -0.21353158 10
-1.949398 1.4839683 -0.12597041 11
-2.2298725 1.6980926 -0.048255898 10
-1.5403413 1.1734256 0.50824809 6
-1.5455745 1.1778386 0.43944681 5
-1.5917732 1.2134844 0.38127533 9
-1.5776291 1.2031373 0.30783629 11
-1.5652897 1.1941592 0.23669893 10
-1.5707133 1.1987306 0.16917974 7
-1.566321 1.195811 0.10093281 13
-1.5361918 1.1732334 0.032741621 7
nan nan nan 0
-1.8680898 1.4298131 -0.53385484 27
-1.8659254 1.428673 -0.44895169 33
-1.8652346 1.4286606 -0.36565328 10
-1.8582395 1.4238174 -0.28233495 18
-1.939782 1.4868339 -0.21048112 8
-1.9402438 1.4877256 -0.12570959 7
-2.2120311 1.696738 -0.047994114 6
-1.5400677 1.1817355 0.50954139 6
-1.5453185 1.1861931 0.44057071 5
-1.5914205 1.2220228 0.38222849 8
-1.5773362 1.2116454 0.30861759 11
-1.5689822 1.2056636 0.23791587 10
-1.5704683 1.2072417 0.16961464 7
-1.5700538 1.207359 0.10145442 12
-1.5320871 1.1785885 0.032741621 8
-1.778603 1.3706982 -0.59101623 20
-1.8785216 1.4482239 -0.53835046 34
-1.8648137 1.438175 -0.44990486 36
-1.8641465 1.4381794 -0.3664346 13
-1.8571872 1.4333273 -0.28294346 20
-1.9188097 1.4814204 -0.208738 5
nan nan nan 0
-2.2377436 1.7289009 -0.048692212 30
-1.5397546 1.1900576 0.51083463 6
-1.5411683 1.1915799 0.44057071 5
-1.5910277 1.2305733 0.38318169 8
-1.5770031 1.220166 0.30939892 11
-1.5686886 1.2141706 0.23852436 10
-1.5701833 1.2157658 0.17004955 7
-1.5697774 1.2158898 0.10171524 12
-1.5319155 1.1869912 0.032828011 8
-1.8348523 1.4242835 -0.61170834 20
-1.8849989 1.4637367 -0.54172218 35
-1.8636584 1.4476868 -0.45085809 36
-1.8669143 1.4507383 -0.3679972 30
-1.8600092 1.4458933 -0.28416041 19
-1.8782388 1.4605901 -0.20481598 6
-2.1781008 1.6943846 -0.14214052 18
-2.2395859 1.7428423 -0.048866734 22
-1.5394024 1.198392 0.51212788 6
-1.5562192 1.2119199 0.44619027 5
-1.5905944 1.239136 0.38413486 8
-1.5766299 1.2286992 0.31018025 11
-1.5683547 1.2226903 0.23913284 10
-1.5698576 1.2243025 0.17048445 6
-1.5694603 1.2244332 0.10197604 12
-1.5317039 1.1954073 0.0329144 7
-1.8717237 1.4634033 -0.62593406 33
-1.8837159 1.473309 -0.54284608 37
-1.8663249 1.4602324 -0.45276445 38
-1.8696169 1.4633341 -0.36955982 26
-1.8588581 1.4554365 -0.28476888 9
-1.900578 1.4886373 -0.20786645 11
-2.3411801 1.8344003 -0.15335527 14
-2.2452919 1.7599012 -0.049128518 22
-1.5352099 1.2037584 0.51212788 6
-1.5673133 1.2293723 0.45068586 12
-1.5901208 1.2477106 0.38508809 8
-1.5801008 1.2402939 0.31174287 10
-1.5679804 1.2312224 0.23974133 9
-1.5694915 1.2328519 0.17091937 7
-1.5691028 1.2329893 0.10223685 12
-1.5312421 1.2041034 0.03300079 7
-1.8891116 1.4881866 -0.63369364 31
-1.8859565 1.4862345 -0.54509389 34
-1.8648151 1.4701016 -0.45371762 37
-1.8719964 1.4762927 -0.37112245 34
-1.8613038 1.4683874 -0.28598583 18
-1.8990191 1.4986788 -0.20830221 13
-2.3775508 1.8770028 -0.15622416 19
-2.2505965 1.7774141 -0.049390309 23
-1.5383674 1.2153653 0.51471442 6
-1.5819088 1.2502133 0.45630541 12
-1.5893874 1.2565744 0.38604125 8
-1.5794177 1.2491404 0.31252417 10
-1.5673494 1.2400405 0.2403498 10
-1.5688682 1.2416873 0.17135428 6
-1.5684879 1.2418315 0.10249766 12
-1.5309485 1.2125449 0.033087179 7
-1.895256 1.5037777 -0.63757336 35
-1.884573 1.4958376 -0.5462178 35
-1.86736 1.4827063 -0.45562398 37
-1.8706988 1.48589 -0.37190375 35
-1.8639381 1.4810504 -0.28720281 23
-1.8937762 1.5052986 -0.20830221 10
-2.242012 1.7827381 -0.14761749 16
-2.2482908 1.7883716 -0.04947757 23
-1.5378948 1.2237352 0.51600766 6
-1.5851589 1.2617959 0.45855322 12
-1.5888312 1.2651722 0.38699445 8
-1.5789106 1.2577229 0.31330547 11
-1.5668926 1.2485968 0.24095827 9
-1.5684193 1.2502609 0.17178918 6
-1.5680474 1.2504121 0.10275847 12
-1.534523 1.2241167 0.033259958 7
-1.8937684 1.5133997 -0.6388666 36
-1.8869512 1.5084915 -0.54846561 34
-1.8660064 1.4922812 -0.45657721 37
-1.8732134 1.4985811 -0.37346637 36
-1.8665062 1.4937496 -0.28841975 25
-1.8923987 1.5150131 -0.208738 6
-2.1890068 1.7530978 -0.1444878 21
-2.2498379 1.8024601 -0.049652096 23
-1.5373826 1.2321165 0.5173009 6
-1.5883472 1.2734165 0.46080104 12
-1.5882341 1.2737814 0.38794762 8
-1.5822147 1.2694076 0.31486809 11
-1.566395 1.257165 0.24156678 9
-1.5679295 1.2588465 0.17222409 6
-1.5675662 1.2590048 0.10301927 12
-1.5341378 1.232597 0.033346348 7
-1.8959992 1.5260578 -0.64145315 36
-1.8854688 1.5181243 -0.54958951 34
-1.868431 1.5049436 -0.45848358 38
-1.8718168 1.5082093 -0.3742477 37
-1.8690088 1.5064849 -0.28963673 29
-1.8909762 1.524736 -0.20917377 5
-2.3616514 1.9049319 -0.15648498 54
-2.2474229 1.8134418 -0.049739353 22
-1.5368305 1.2405089 0.51859415 6
-1.5876831 1.2820141 0.46192494 12
-1.5914147 1.2854862 0.38985398 8
-1.5816154 1.2780269 0.31564942 11
-1.5658567 1.2657449 0.24217525 10
-1.5712723 1.2705759 0.17309393 6
-1.5670438 1.2676091 0.10328008 11
-1.533712 1.2410893 0.033432737 7
-1.8944126 1.5357082 -0.64274633 36
-1.8877264 1.5308341 -0.55183733 34
-1.866978 1.5145484 -0.45943674 38
-1.8742102 1.5209579 -0.3758103 36
-1.8675919 1.5161278 -0.29024521 29
-1.889509 1.5344675 -0.20960957 5
-2.3666139 1.9226092 -0.15726739 23
-2.2488384 1.8275813 -0.049913879 23
-1.5362388 1.2489127 0.51988739 6
-1.5907582 1.2936963 0.46417275 12
-1.5907253 1.2941309 0.39080721 8
-1.5809749 1.2866571 0.31643069 10
-1.5652778 1.2743365 0.24278374 10
-1.5706899 1.2791984 0.17352884 6
-1.5664806 1.2762252 0.1035409 11
-1.5332458 1.2495939 0.033519126 7
-1.8927817 1.545366 -0.64403963 36
-1.8861448 1.540496 -0.55296123 35
-1.8692819 1.5272673 -0.46134311 37
-1.8727133 1.530616 -0.37659159 36
-1.8699723 1.5289202 -0.29146218 17
-1.8918523 1.5473607 -0.21048112 7
-2.3251081 1.9024013 -0.15492013 8
-2.2733941 1.8607516 -0.050611973 22
-1.5393438 1.2603872 0.52247393 6
-1.5900016 1.3023283 0.46529663 12
-1.5937915 1.3058974 0.39271358 8
-1.5802937 1.2952987 0.31721202 10
-1.5684952 1.2860857 0.24400067 9
-1.5700662 1.2878324 0.17396374 6
-1.5658764 1.2848527 0.1038017 11
-1.5327387 1.25811 0.033605516 7
-1.894837 1.558099 -0.64662611 36
-1.8882813 1.5532607 -0.55520904 36
-1.8677293 1.5369017 -0.46229634 37
-1.8749849 1.5434211 -0.37815422 36
-1.8531307 1.5259742 -0.28963673 3
-1.8902841 1.557122 -0.21091689 7
-2.3377204 1.9263828 -0.15622416 8
-2.2861726 1.8845756 -0.051048286 30
-1.5386612 1.2688255 0.52376711 6
-1.5929625 1.3140712 0.46754444 11
-1.5930091 1.3145769 0.39366677 8
-1.579571 1.3039511 0.31799331 10
-1.5678233 1.2947133 0.24460918 9
-1.5694014 1.2964773 0.17439865 6
-1.5652308 1.2934917 0.10406251 11
-1.5321909 1.2666379 0.033691905 7
-1.8931065 1.5677842 -0.64791936 36
-1.8903515 1.566059 -0.55745685 34
-1.8699117 1.5496759 -0.4642027 38
-1.8733879 1.5531086 -0.37893555 36
-1.8363326 1.5229291 -0.28781131 4
-1.8695033 1.5509895 -0.20917377 4
-2.3156126 1.9217761 -0.15518093 18
-2.3180447 1.9244778 -0.051920906 47
-1.5379385 1.2772745 0.52506042 6
-1.5921134 1.3227371 0.46866837 11
-1.5921854 1.3232667 0.39461994 8
-1.5788074 1.3126141 0.31877464 10
-1.5709255 1.3065249 0.24582614 9
-1.5648663 1.3019476 0.17439865 6
-1.5645441 1.3021417 0.10432332 12
-1.5316021 1.2751772 0.033778295 7
-1.8913316 1.5774765 -0.64921266 34
-1.8886143 1.5757692 -0.55858076 32
-1.8720273 1.562484 -0.46610907 37
-1.8717458 1.5628035 -0.37971684 36
-1.8233875 1.522967 -0.28659433 2
-1.8526108 1.5479246 -0.20786645 5
-2.3050592 1.9266449 -0.15492013 25
-2.3036423 1.9261439 -0.051746383 47
-1.5408801 1.2888327 0.5276469 6
-1.5949597 1.3345395 0.47091618 11
-1.5913205 1.3319669 0.39557317 8
-1.5780021 1.3212875 0.31955594 11
-1.5701597 1.3151872 0.2464346 9
-1.5641302 1.3106012 0.17483355 6
-1.5676426 1.3140103 0.10484494 11
-1.5348032 1.2869401 0.033951074 7
-1.8932101 1.5902817 -0.65179914 35
-1.8905624 1.5886207 -0.56082857 33
-1.870319 1.5721674 -0.46706229 36
-1.8738393 1.5756847 -0.3812795 36
-1.8104645 1.5229332 -0.28537738 2
-1.8357629 1.5447611 -0.20655911 4
-2.2906797 1.9282482 -0.15439852 34
-2.2892566 1.9277329 -0.051571857 45
-1.5400656 1.2973151 0.52894014 6
-1.5940171 1.3432382 0.47204006 12
-1.590414 1.3406769 0.39652634 8
-1.5771561 1.3299717 0.32033727 10
-1.573146 1.32706 0.24765156 9
-1.5633523 1.3192654 0.17526846 6
-1.5668615 1.322695 0.10510574 11
-1.534121 1.2955152 0.034037463 7
-1.8913347 1.6000001 -0.65309232 34
-1.8924435 1.6015048 -0.56307638 32
-1.8723122 1.5850292 -0.46896866 36
-1.8720964 1.5854076 -0.3820608 35
-1.7899907 1.516412 -0.28294346 8
-1.8265593 1.5479392 -0.20612334 5
-2.2763176 1.9297746 -0.1538769 41
-2.2710752 1.926012 -0.05131007 50
-1.542894 1.3089323 0.53152668 6
-1.5930333 1.3519468 0.47316399 12
-1.5894665 1.3493971 0.39747953 8
-1.5800325 1.3418624 0.32189989 10
-1.5722865 1.3357565 0.24826005 9
-1.5663289 1.3311658 0.17613828 6
-1.5660393 1.3313907 0.10536655 11
-1.5372061 1.3073399 0.034210242 7
-1.8894145 1.6097245 -0.65438563 34
-1.8905499 1.6112614 -0.56420028 32
-1.8742383 1.5979241 -0.47087502 36
-1.874066 1.5983421 -0.38362342 35
-1.7695847 1.5097665 -0.28050953 25
-1.8059905 1.5413715 -0.20438023 8
-2.2619727 1.9312243 -0.15335527 41
-2.2567356 1.9274342 -0.051135547 50
-1.5419877 1.3174474 0.53281993 6
-1.592008 1.3606647 0.47428787 12
-1.5884769 1.3581266 0.3984327 8
-1.579092 1.3505797 0.32268122 10
-1.571385 1.3444629 0.24886853 9
-1.565457 1.3398643 0.17657319 6
-1.5651751 1.3400964 0.10562735 11
-1.5364302 1.3159499 0.034296632 7
-1.8874497 1.6194552 -0.65567887 34
-1.8960049 1.6273702 -0.567572 33
-1.868649 1.6044567 -0.47087502 36
-1.8722217 1.608092 -0.38440475 35
-1.7417185 1.4965284 -0.27685863 30
-1.8081536 1.5541596 -0.20525178 14
-2.2438593 1.9293424 -0.15257286 44
-2.2424138 1.9287801 -0.050961021 50
-1.5447017 1.3291223 0.53540641 6
-1.5909413 1.3693919 0.4754118 12
-1.5874461 1.3668658 0.3993859 8
-1.5781097 1.3593065 0.32346252 11
-1.5704422 1.3531795 0.24947701 9
-1.5645432 1.3485725 0.17700809 6
-1.5680509 1.3520731 0.10614897 11
-1.5393983 1.3278357 0.034469411 7
-1.892749 1.6355072 -0.65955865 34
-1.886627 1.6307925 -0.56644809 33
-1.8704625 1.6173906 -0.47278142 37
-1.8740672 1.6210792 -0.38596734 36
-1.7289784 1.4961042 -0.27564168 31
-1.7499932 1.5148227 -0.19915086 6
-2.2333364 1.9338945 -0.15231204 49
-2.2281098 1.9300493 -0.050786499 50
-1.543703 1.337669 0.53669971 6
-1.5898329 1.3781282 0.47653568 12
-1.5900817 1.3788298 0.40129229 8
-1.577086 1.3680429 0.32424384 11
-1.5732059 1.3651584 0.25069398 9
-1.571111 1.3638215 0.17831282 6
-1.5670921 1.3608124 0.10640979 11
-1.5345213 1.3334689 0.034469411 7
-1.8940275 1.6487759 -0.66214514 34
-1.8843114 1.640896 -0.567572 34
-1.8682227 1.6274592 -0.47373459 36
-1.8718363 1.6311817 -0.38674864 35
-1.7272243 1.5056925 -0.27625015 25
-1.7556915 1.5310478 -0.20045821 4
-2.2111826 1.9289373 -0.15126881 45
-2.2097211 1.9283417 -0.050524715 50
-1.549705 1.3528469 0.54057944 6
-1.5921105 1.3903553 0.47878349 12
-1.5887138 1.3878778 0.40224546 8
-1.5832171 1.3835633 0.32658774 11
-1.5719283 1.3741819 0.25130248 9
-1.5698513 1.3728496 0.17874774 6
-1.5658518 1.3698344 0.10667059 11
-1.5336194 1.3421096 0.0345558 7
-1.8955243 1.661745 -0.66473162 30
nan nan nan 0
nan nan nan 0
-1.8698429 1.6409633 -0.38752997 34
-1.7219579 1.5117123 -0.27625015 17
-1.7578217 1.5437406 -0.20132977 3
-2.2006848 1.9333489 -0.15100801 48
-2.1992211 1.9327432 -0.05043745 43
-1.5413462 1.3550593 0.5392862 6
-1.5872476 1.3959043 0.47878349 12
-1.5912298 1.3998989 0.40415183 8
-1.5709634 1.3825557 0.32502511 11
-1.5671219 1.3796605 0.25130248 10
-1.5650496 1.3783211 0.17874774 6
-1.5573143 1.3719913 0.10640979 11
-1.5289252 1.3474545 0.0345558 6
nan nan nan 0
nan nan nan 0
-1.8531373 1.6372124 -0.47278142 15
nan nan nan 0
nan nan nan 0
nan nan nan 0
-2.1901829 1.9377102 -0.15074719 21
nan nan nan 0
-1.5366068 1.3604313 0.5392862 5
nan nan nan 0
-1.5863335 1.4054449 0.40415183 8
-1.5809114 1.4011338 0.32815036 9
nan nan nan 0
nan nan nan 0
-1.5487803 1.374105 0.10614897 10
nan nan nan 0
nan nan nan 0
-1.113445 0.99030167 -0.33492368 18
nan nan nan 0
nan nan nan 0
nan nan nan 0
nan nan nan 0
nan nan nan 0
nan nan nan 0
nan nan nan 0
-1.5883719 1.4166802 0.48215523 6
nan nan nan 0
-1.5796955 1.4099323 0.32893169 5
-1.5648559 1.3971779 0.25251943 5
nan nan nan 0
nan nan nan 0
-1.0945568 0.97830296 0.024707396 36
