# .PCD v0.7 - Point Cloud Data file format
VERSION 0.7
FIELDS x y z intensity
SIZE 4 4 4 4
TYPE F F F F
COUNT 1 1 1 1
WIDTH 1319
HEIGHT 1
VIEWPOINT 0 0 0 1 0 0 0
POINTS 1319
DATA ascii
1.092566 -1.5655743 0.4315795 14
1.1058748 -1.5852343 0.36793068 16
1.0868589 -1.5585552 0.29455402 14
1.0918168 -1.5662476 0.22939716 22
1.1011645 -1.5802448 0.16483064 27
1.0835414 -1.5555334 0.097020686 20
1.0788448 -1.5493674 0.031964112 25
0.9176805 -1.3203692 -0.42030698 9
0.9363932 -1.3477951 -0.36976472 15
0.90096468 -1.2972844 -0.29930112 13
0.92869079 -1.337705 -0.25158197 61
0.92159289 -1.3279756 -0.19349679 62
1.0779622 -1.5538758 -0.16210969 12
1.1030444 -1.5906245 -0.099107154 25
1.0841386 -1.5639446 -0.032548737 23
1.0753896 -1.5519021 0.49531561 19
1.0870944 -1.5693785 0.4315795 14
1.0975404 -1.5850496 0.36697748 17
1.0786011 -1.558279 0.29377273 15
1.0835191 -1.565968 0.22878867 19
1.0956416 -1.5840789 0.16483064 25
1.0752653 -1.555199 0.096759871 22
1.0705875 -1.5490112 0.031877723 25
0.91855109 -1.3315157 -0.42289349 8
0.93168283 -1.3510555 -0.36976472 22
0.89921653 -1.3044626 -0.30025432 11
0.92121351 -1.336872 -0.25080064 52
0.91132128 -1.3230104 -0.19227985 60
1.0697066 -1.5535266 -0.1616739 5
1.0946541 -1.5903521 -0.098846346 24
1.075839 -1.563601 -0.032461476 24
1.0672289 -1.551667 0.49402237 19
1.0788494 -1.5691488 0.4304556 16
1.0892208 -1.584826 0.36602432 20
1.073155 -1.5620344 0.29377273 17
1.0724273 -1.5615587 0.22757173 15
1.0872864 -1.5837874 0.16439573 26
1.0670048 -1.5548259 0.096499063 21
1.0623459 -1.5486162 0.031791333 25
0.9220838 -1.3466694 -0.42677325 8
0.92971289 -1.35832 -0.37088862 17
0.89465773 -1.3075935 -0.30025432 19
0.91375333 -1.3360031 -0.25001931 25
0.90669757 -1.3261834 -0.19227985 62
1.0642772 -1.5572512 -0.1616739 14
1.0862794 -1.5900404 -0.098585539 23
1.0675551 -1.5632184 -0.032374211 24
1.0590829 -1.5513937 0.4927291 22
1.0733656 -1.5729052 0.4304556 16
1.080916 -1.5845637 0.36507112 22
1.0649137 -1.5616907 0.2929914 18
1.0641747 -1.561192 0.22696324 17
1.0789466 -1.5834568 0.16396083 26
1.0587599 -1.5544143 0.096238256 21
1.0541202 -1.5481828 0.031704944 24
0.92552179 -1.361864 -0.43065301 8
0.92520344 -1.3613956 -0.37088862 20
0.89307475 -1.3146131 -0.30120748 14
0.90654349 -1.3349403 -0.24923801 20
0.90508211 -1.333289 -0.19288832 55
1.0563105 -1.5566502 -0.16123812 7
1.0810007 -1.593634 -0.098585539 23
1.0595597 -1.5626122 -0.032286949 23
1.0539323 -1.5548973 0.4927291 22
1.0654107 -1.5724225 0.42933169 17
1.072903 -1.5840757 0.36411792 21
1.0597292 -1.5652134 0.2929914 19
1.05621 -1.5606023 0.22635476 17
1.0708985 -1.5829005 0.16352591 26
1.0508024 -1.5537804 0.095977448 21
1.0461804 -1.5475281 0.031618554 26
0.9264037 -1.3729329 -0.43323949 7
0.92044568 -1.3646169 -0.37088862 17
0.88848042 -1.3177226 -0.30120748 15
0.89911789 -1.3340013 -0.2484567 13
0.90319556 -1.340556 -0.19349679 52
1.042523 -1.5479339 -0.15993078 8
1.0726428 -1.5932556 -0.098324731 25
1.0513076 -1.5621537 -0.032199688 24
1.0458025 -1.5545595 0.49143586 20
1.0571966 -1.5720891 0.42820778 17
1.0646287 -1.5837376 0.36316475 21
1.0515046 -1.564804 0.2922101 19
1.0479888 -1.5601599 0.22574626 16
1.0625899 -1.5824937 0.163091 26
1.0425895 -1.5532931 0.09571664 21
1.0379868 -1.5470192 0.031532165 25
0.94310582 -1.4082628 -0.44358552 10
0.91567671 -1.3678215 -0.37088862 12
0.88660514 -1.324895 -0.30216068 17
0.89445597 -1.3371317 -0.2484567 16
0.90126932 -1.3478261 -0.19410528 67
1.0288093 -1.5391403 -0.15862344 11
1.0643008 -1.5928385 -0.098063923 25
1.0430715 -1.5616568 -0.032112423 24
1.0376878 -1.5541836 0.49014261 22
1.048998 -1.5717174 0.42708388 17
1.0563699 -1.5833611 0.36221156 22
1.043296 -1.5643563 0.2914288 17
1.0397835 -1.559679 0.22513779 15
1.0542973 -1.5820482 0.1626561 27
1.0371611 -1.5569229 0.09571664 21
1.0325804 -1.5506331 0.031532165 25
0.93016374 -1.3994792 -0.43970576 8
0.90820038 -1.3669515 -0.36976472 9
0.88197494 -1.3279819 -0.30216068 35
0.88978302 -1.340246 -0.2484567 24
0.8993032 -1.3550991 -0.19471376 69
1.0261841 -1.546873 -0.15905923 11
1.0559746 -1.5923827 -0.097803116 24
1.0348519 -1.5611213 -0.032025162 25
1.0295885 -1.5537702 0.48884934 25
1.0408148 -1.5713077 0.42595997 16
1.0481269 -1.5829465 0.36125836 22
1.0351032 -1.5638704 0.29064748 17
1.0315944 -1.5591604 0.22452931 17
1.0460206 -1.5815641 0.16222119 28
1.0289664 -1.5563686 0.095455833 22
1.024405 -1.5500573 0.031445779 26
0.9146353 -1.3865905 -0.43453273 6
0.90342319 -1.3701133 -0.36976472 6
0.87733412 -1.3310525 -0.30216068 40
0.88509929 -1.3433435 -0.2484567 30
0.89183778 -1.3540852 -0.19410528 52
1.001605 -1.5213236 -0.15600878 13
1.0476648 -1.5918881 -0.097542301 23
1.0293962 -1.5647243 -0.032025162 26
1.0215046 -1.5533192 0.4875561 24
1.0353236 -1.5749313 0.42595997 17
1.042595 -1.5865955 0.36125836 23
1.0269265 -1.5633463 0.28986615 15
1.0234216 -1.5586033 0.22392082 18
1.0377604 -1.5810416 0.16178627 28
1.0207882 -1.5557762 0.095195025 21
1.0162464 -1.5494435 0.031359389 26
0.90449888 -1.3816926 -0.43194625 6
0.89329964 -1.365105 -0.36751691 12
0.87268245 -1.3341068 -0.30216068 41
0.88040471 -1.3464249 -0.2484567 34
0.88710576 -1.3571901 -0.19410528 55
0.98539048 -1.5081315 -0.15426567 15
1.0393711 -1.5913548 -0.097281493 23
1.0211949 -1.564122 -0.031937901 24
1.0134367 -1.5528309 0.48626286 24
1.0271577 -1.5744553 0.42483607 18
1.034369 -1.5861139 0.36030519 22
1.0187663 -1.5627842 0.28908485 17
1.0179749 -1.5621663 0.22392082 23
1.0295165 -1.5804807 0.16135137 27
1.0126266 -1.5551456 0.094934218 20
1.0081043 -1.5487914 0.031273 25
0.89177656 -1.372691 -0.42806649 11
0.8832221 -1.3600427 -0.36526912 18
0.87069279 -1.3412619 -0.30311388 18
0.87301123 -1.3453472 -0.24767539 49
0.8796621 -1.3561149 -0.19349679 63
0.90153259 -1.3903625 -0.14162809 15
1.0310941 -1.5907832 -0.097020686 25
1.0130106 -1.5634815 -0.03185064 25
1.00801 -1.5563589 0.48626286 24
1.0190078 -1.5739412 0.42371216 17
1.0261594 -1.5855942 0.35935199 23
1.0106224 -1.5621843 0.28830352 15
1.0098207 -1.5615427 0.22331235 23
1.0239931 -1.5840647 0.16135137 28
1.0044822 -1.554477 0.09467341 22
0.99997944 -1.5481015 0.031186609 25
0.8791284 -1.3636174 -0.42418674 17
0.87583011 -1.3590223 -0.36414522 12
0.84739858 -1.3154093 -0.29644156 13
0.86296201 -1.340082 -0.24611278 28
0.87223673 -1.3550042 -0.19288832 72
0.84546292 -1.3139153 -0.13334829 35
1.0228337 -1.590173 -0.096759871 23
1.0048431 -1.562803 -0.031763379 23
0.99995989 -1.555805 0.48496959 26
1.010874 -1.5733896 0.42258826 18
1.0179662 -1.5850365 0.3583988 23
1.0024952 -1.5615467 0.28752223 15
1.0043638 -1.5650582 0.22331235 23
1.0157682 -1.5834368 0.16091645 26
0.9990499 -1.5579739 0.09467341 22
0.99456948 -1.5515827 0.031186609 26
0.87176025 -1.3626094 -0.42289349 15
0.86583102 -1.3538623 -0.36189741 16
0.83222693 -1.3018174 -0.29262879 10
0.85296047 -1.3347633 -0.24455015 38
0.8621583 -1.3496758 -0.19167136 57
0.83282936 -1.3042642 -0.13204095 39
1.0145903 -1.589525 -0.096499063 26
0.99669272 -1.5620866 -0.031676114 24
0.99192578 -1.555214 0.48367634 24
1.0027565 -1.5728006 0.42146435 16
1.0097891 -1.5844411 0.35744563 22
0.99703825 -1.5650364 0.28752223 18
0.99622875 -1.5643684 0.22270387 23
1.0075599 -1.5827711 0.16048154 28
0.99092484 -1.5572389 0.094412602 22
0.9864642 -1.5508267 0.031100219 25
0.86440986 -1.3615668 -0.42160022 23
0.85848933 -1.3527628 -0.3607735 20
0.81978983 -1.2922807 -0.28976923 11
0.84565133 -1.333562 -0.24376884 45
0.8468138 -1.3359106 -0.18923745 35
0.82560551 -1.302956 -0.13160518 63
1.0063637 -1.5888387 -0.096238256 26
0.99123394 -1.5655562 -0.031676114 24
0.98390806 -1.5545859 0.4823831 23
0.99465543 -1.572174 0.42034045 16
1.0016288 -1.5838079 0.35649243 21
0.98893023 -1.5643328 0.2867409 20
0.99076205 -1.5678363 0.22270387 23
0.99936861 -1.5820673 0.16004664 28
0.98281705 -1.5564666 0.094151795 22
0.97837633 -1.5500332 0.03101383 25
0.85450298 -1.3564025 -0.41901374 18
0.85399872 -1.3556021 -0.3607735 15
0.81549996 -1.294992 -0.28976923 12
0.83596247 -1.3279999 -0.24220623 55
0.82916343 -1.3177091 -0.18619505 43
0.82393235 -1.3099029 -0.13204095 54
0.99843168 -1.5879399 -0.095977448 26
0.98337668 -1.564602 -0.031588852 25
0.97617805 -1.5537504 0.48108983 23
0.98684537 -1.5713381 0.41921654 16
0.99376142 -1.5829638 0.35553923 21
0.98111212 -1.5634204 0.2859596 22
0.98292029 -1.5669091 0.22209539 24
0.99411684 -1.5853726 0.16004664 27
0.9749983 -1.5554866 0.093890987 23
0.97057652 -1.5490327 0.03092744 25
0.84743947 -1.3551338 -0.4177205 16
0.84409648 -1.3503124 -0.35852566 16
0.81097466 -1.2978307 -0.28976923 12
0.82870555 -1.3267213 -0.24142492 34
0.82193035 -1.3163859 -0.18558656 51
0.81935483 -1.3127708 -0.13204095 56
0.99023956 -1.5871792 -0.09571664 24
0.97526366 -1.5637832 -0.031501591 25
0.96819329 -1.5530496 0.47979656 23
0.97877765 -1.5706383 0.41809264 18
0.98822975 -1.5864229 0.35553923 23
0.97564882 -1.5668358 0.2859596 21
0.97482216 -1.5661173 0.22148691 23
0.98594534 -1.5846039 0.15961173 26
0.96692568 -1.5546403 0.09363018 23
0.96516353 -1.5524112 0.03092744 26
0.83761084 -1.3498756 -0.41513398 17
0.83167368 -1.3408297 -0.35515395 16
0.80643946 -1.3006536 -0.28976923 12
0.8214677 -1.3254083 -0.24064361 26
0.82255769 -1.3276843 -0.18680352 67
0.81476748 -1.315623 -0.13204095 57
0.98206508 -1.5863806 -0.095455833 25
0.96979916 -1.567178 -0.031501591 23
0.9602254 -1.5523124 0.47850332 26
0.97328907 -1.5740454 0.41809264 19
0.98010558 -1.5856878 0.35458606 25
0.96757782 -1.5660305 0.2851783 23
0.96934938 -1.5695106 0.22148691 22
0.98040807 -1.5880357 0.15961173 24
0.95887071 -1.5537568 0.093369372 22
0.95711386 -1.5515161 0.030841051 25
0.82529706 -1.3404527 -0.4112542 31
0.81932741 -1.3312769 -0.35178223 21
0.79932255 -1.2992802 -0.28881606 13
0.81424922 -1.3240609 -0.23986229 15
0.82051724 -1.3347756 -0.18741199 74
0.81017011 -1.3184592 -0.13204095 42
0.97652161 -1.589799 -0.095455833 25
0.961707 -1.5662934 -0.03141433 25
0.9522745 -1.5515385 0.47721007 25
0.96524084 -1.5732802 0.4169687 19
0.97199833 -1.5849149 0.35363284 25
0.96210551 -1.5693984 0.2851783 23
0.96127182 -1.5686531 0.22087842 22
0.9722569 -1.5872009 0.15917681 21
0.9534412 -1.5570945 0.093369372 23
0.94908243 -1.5505836 0.030754661 26
0.81305951 -1.3309605 -0.40737444 37
0.80451888 -1.3174964 -0.34728661 33
0.792225 -1.2978729 -0.28786287 21
0.80705011 -1.3226793 -0.23908098 21
0.81843722 -1.3418684 -0.18802048 58
0.80815578 -1.3255318 -0.13247673 61
0.9683677 -1.5889343 -0.095195025 24
0.95363283 -1.5653715 -0.031327069 24
0.9468528 -1.554853 0.47721007 25
0.95974314 -1.57664 0.4169687 18
0.96390867 -1.5841053 0.35267967 25
0.95405489 -1.5685279 0.28439698 22
0.95579034 -1.571999 0.22087842 21
0.96671057 -1.5905849 0.15917681 21
0.94540763 -1.5561457 0.093108565 22
0.94106913 -1.5496141 0.030668272 25
0.81091213 -1.3379208 -0.40866768 67
0.79991519 -1.3202968 -0.34728661 59
0.78768975 -1.3006305 -0.28786287 38
0.79987049 -1.3212637 -0.23829968 30
0.81374818 -1.3447171 -0.18802048 58
0.80094588 -1.324083 -0.13204095 55
0.96281534 -1.5923048 -0.095195025 24
0.94816279 -1.5686908 -0.031327069 24
0.93892193 -1.5540147 0.4759168 26
0.95171511 -1.5758101 0.41584483 19
0.95583642 -1.5832584 0.35172647 26
0.94602221 -1.5676204 0.28361568 23
0.94773376 -1.5710762 0.22026995 23
0.96115261 -1.5939497 0.15917681 23
0.93739218 -1.5551599 0.092847757 22
0.93307418 -1.5486075 0.030581882 26
0.80872589 -1.3448824 -0.40996096 73
0.80032158 -1.3314323 -0.34953442 72
0.78314495 -1.303372 -0.28786287 58
0.79525363 -1.3240476 -0.23829968 51
0.80394024 -1.3390397 -0.18680352 39
0.79631907 -1.3268707 -0.13204095 35
0.95468259 -1.5913743 -0.094934218 26
0.94011015 -1.5677034 -0.031239806 24
0.93100846 -1.55314 0.47462356 26
0.94370449 -1.5749433 0.41472092 19
0.94778192 -1.5823745 0.35077327 24
0.94054449 -1.5709131 0.28361568 23
0.93969536 -1.5701164 0.21966147 23
0.95302558 -1.5930206 0.15874191 21
0.93195802 -1.5584226 0.092847757 23
0.92509782 -1.5475641 0.030495493 26
0.80650109 -1.3518449 -0.4112542 63
0.79566914 -1.3342179 -0.34953442 63
0.77859056 -1.3060979 -0.28786287 74
0.78809893 -1.3225731 -0.23751837 67
0.79418182 -1.3333104 -0.18558656 43
0.78913432 -1.3253624 -0.13160518 29
0.94656819 -1.5904063 -0.09467341 27
0.93207616 -1.5666791 -0.031152545 25
0.92558128 -1.5563804 0.47462356 27
0.93820119 -1.5782279 0.41472092 17
0.9422527 -1.5856732 0.35077327 25
0.93253303 -1.5699404 0.28283435 24
0.93167514 -1.5691197 0.21905299 24
0.9474591 -1.5963376 0.15874191 18
0.92396474 -1.557372 0.092586942 23
0.91714001 -1.5464839 0.030409103 25
0.79931724 -1.3504955 -0.40996096 35
0.79372185 -1.3410418 -0.35065833 42
0.7742551 -1.3086724 -0.28786287 44
0.78370881 -1.3251792 -0.23751837 81
0.78723049 -1.3316644 -0.18497808 53
0.79487103 -1.3451248 -0.13334829 22
0.94128889 -1.5935365 -0.09467341 26
0.92433387 -1.5654565 -0.031065281 25
0.91796017 -1.5552819 0.47333032 23
0.9304868 -1.5771341 0.41359702 17
0.93449581 -1.5845612 0.34982011 24
0.92481393 -1.5687699 0.28205305 23
0.9239471 -1.5679251 0.21844451 23
0.93963218 -1.595179 0.158307 16
0.91879523 -1.5604273 0.092586942 23
0.91200668 -1.5495167 0.030409103 26
0.78749567 -1.3406452 -0.4060812 29
0.78656894 -1.3396028 -0.34953442 21
0.76719773 -1.307134 -0.28690967 27
0.7765792 -1.3236473 -0.23673706 86
0.77755606 -1.3258424 -0.18376112 74
0.79772794 -1.3607824 -0.13465562 22
0.93319625 -1.5925044 -0.094412602 24
0.91633695 -1.5643598 -0.03097802 25
0.9100852 -1.5543087 0.47203705 23
0.92497587 -1.5803727 0.41359702 17
0.92648035 -1.5835772 0.34886691 25
0.91933227 -1.5719886 0.28205305 23
0.91846836 -1.5711405 0.21844451 23
0.93405825 -1.5984491 0.158307 15
0.91082424 -1.5593135 0.092326134 23
0.90407157 -1.5483736 0.030322714 27
0.76335758 -1.3100014 -0.39573517 17
0.77943593 -1.3381305 -0.34841052 15
0.75769091 -1.3013209 -0.2850033 21
0.77195406 -1.32635 -0.23673706 77
0.77292323 -1.3285484 -0.18376112 85
0.80048513 -1.376476 -0.13596296 20
0.92512232 -1.5914353 -0.094151795 28
0.90835911 -1.5632265 -0.030890757 26
0.90465403 -1.557476 0.47203705 22
0.91700733 -1.5793785 0.41247311 18
0.92094702 -1.5868015 0.34886691 25
0.9113611 -1.5709164 0.28127176 23
0.91048872 -1.5700439 0.21783602 24
0.92597491 -1.5973904 0.1578721 14
0.90287232 -1.5581632 0.092065327 23
0.89866126 -1.5515199 0.030322714 27
0.76844859 -1.3293842 -0.4009082 17
0.77232271 -1.3366246 -0.34728661 21
0.75068891 -1.2997075 -0.28405011 14
0.76485026 -1.3247596 -0.23595574 66
0.76580042 -1.3269401 -0.18315265 76
0.80563134 -1.3965201 -0.13770607 11
0.91706711 -1.5903295 -0.093890987 25
0.90289688 -1.5663878 -0.030890757 26
0.89680064 -1.5564394 0.47074381 23
0.90905708 -1.5783478 0.41134921 19
0.9129535 -1.5857528 0.34791371 27
0.90340877 -1.5698076 0.28049043 23
0.90252811 -1.5689107 0.21722755 18
0.91791034 -1.5962949 0.15743718 17
0.89493948 -1.5569762 0.091804519 23
0.89074939 -1.5503126 0.030236326 27
0.77101111 -1.3446281 -0.40478793 17
0.76522964 -1.3350853 -0.34616271 27
0.74126744 -1.2938023 -0.28214374 18
0.7602213 -1.3274213 -0.23595574 60
0.76116389 -1.3296051 -0.18315265 62
0.79827774 -1.3950005 -0.13727029 10
0.91151035 -1.5935208 -0.093890987 26
0.89494216 -1.56519 -0.030803496 26
0.88896555 -1.5553671 0.46945056 19
0.9035421 -1.5815115 0.41134921 19
0.90741265 -1.58893 0.34791371 26
0.89792359 -1.5729516 0.28049043 23
0.89458644 -1.5677412 0.21661907 19
0.90739679 -1.590836 0.15656736 23
0.88949919 -1.5600907 0.091804519 23
0.88533235 -1.5534126 0.030236326 27
0.76631278 -1.3473113 -0.40478793 30
0.76056463 -1.3377483 -0.34616271 35
0.73674673 -1.2963818 -0.28214374 37
0.75314379 -1.3257728 -0.23517443 54
0.75651801 -1.3322539 -0.18315265 62
0.79586232 -1.4021103 -0.13770607 7
0.90347821 -1.59235 -0.09363018 27
0.8894732 -1.5683043 -0.030803496 25
0.88114893 -1.5542591 0.46815729 16
0.89561397 -1.580417 0.4102253 19
0.90186071 -1.5920877 0.34791371 26
0.88999408 -1.5717789 0.27970913 26
0.88666403 -1.5665352 0.21601059 16
0.89938545 -1.5896584 0.15613246 26
0.88159001 -1.5588398 0.091543712 23
0.87744433 -1.5521414 0.030149937 26
0.76160508 -1.3499781 -0.40478793 36
0.75828356 -1.3446388 -0.34728661 70
0.73944783 -1.3117731 -0.2850033 38
0.75093573 -1.3326962 -0.23595574 42
0.75186294 -1.3348867 -0.18315265 51
0.79096311 -1.4048798 -0.13770607 8
0.89546549 -1.5911428 -0.093369372 27
0.88154233 -1.5670426 -0.030716235 25
0.87335086 -1.5531156 0.46686405 15
0.88770467 -1.5792866 0.4091014 18
0.89389348 -1.5909472 0.34696054 26
0.88208383 -1.5705701 0.2789278 26
0.87876081 -1.5652931 0.21540211 18
0.89383101 -1.5927882 0.15613246 28
0.87370044 -1.5575527 0.091282904 23
0.87202096 -1.555195 0.030149937 28
0.75924665 -1.3568432 -0.4060812 42
0.75596368 -1.3515297 -0.34841052 88
0.7396549 -1.3229144 -0.28690967 53
0.74868852 -1.3396204 -0.23673706 48
0.74961919 -1.3418355 -0.18376112 46
0.75448394 -1.3510972 -0.13204095 21
0.88747221 -1.5898987 -0.093108565 27
0.87363106 -1.5657445 -0.030628972 25
0.86792409 -1.5561546 0.46686405 17
0.87981409 -1.5781201 0.40797749 15
0.88833463 -1.5940577 0.34696054 27
0.87419283 -1.5693252 0.27814651 25
0.87087721 -1.5640152 0.21479362 19
0.88826567 -1.5958984 0.15613246 29
0.8658306 -1.5562296 0.091022097 23
0.86388612 -1.5540112 0.030063547 28
0.75426847 -1.3596169 -0.4060812 73
0.75336766 -1.3585521 -0.34953442 96
0.74193996 -1.3384953 -0.28976923 74
0.74377352 -1.3423554 -0.23673706 69
0.74710053 -1.3489153 -0.18436959 67
0.7254014 -1.3102764 -0.12768316 16
0.87922126 -1.5887721 -0.092847757 28
0.86788642 -1.568936 -0.030628972 25
0.85987753 -1.5550985 0.46557081 18
0.87166721 -1.5770702 0.40685359 15
0.88011253 -1.5930065 0.34600735 25
0.86843508 -1.5725187 0.27814651 25
0.86513901 -1.5671965 0.21479362 20
0.88241047 -1.5991434 0.15613246 27
0.86012095 -1.5593927 0.091022097 24
0.85845631 -1.5570172 0.030063547 28
0.74951792 -1.3622415 -0.4060812 99
0.74862087 -1.3611736 -0.34953442 98
0.74435705 -1.3539803 -0.29262879 93
0.74146175 -1.3492717 -0.23751837 82
0.74477684 -1.3558649 -0.18497808 83
0.72082329 -1.3128003 -0.12768316 20
0.87126768 -1.5874542 -0.092586942 27
0.85999995 -1.5675728 -0.030541711 26
0.85212165 -1.5538557 0.46427754 18
0.86381507 -1.5758311 0.40572968 14
0.87218791 -1.5917645 0.34505415 27
0.86056828 -1.5712091 0.27736521 22
0.85727996 -1.565854 0.21418515 19
0.87682307 -1.602214 0.15613246 27
0.85227609 -1.558005 0.090761289 24
0.85061759 -1.5556178 0.029977158 27
0.74707174 -1.3690892 -0.40737444 89
0.74643666 -1.3679254 -0.35065833 92
0.73516238 -1.3478234 -0.29072243 84
0.7369833 -1.351723 -0.23751837 68
0.74027652 -1.3583272 -0.18497808 71
0.72123164 -1.3239318 -0.12855473 22
0.86599874 -1.5903348 -0.092586942 28
0.85240698 -1.5660253 -0.030454447 26
0.84696412 -1.5566729 0.46427754 19
0.85858464 -1.578687 0.40572968 13
0.86690468 -1.5946481 0.34505415 25
0.8553533 -1.5740542 0.27736521 22
0.85208273 -1.568688 0.21418515 22
0.87150508 -1.6051128 0.15613246 29
0.84710485 -1.5608227 0.090761289 24
0.84307039 -1.5540358 0.029890768 28
0.7425276 -1.371559 -0.40737444 69
0.7416572 -1.3705225 -0.35065833 77
0.72811782 -1.3460642 -0.28976923 78
0.73226047 -1.3542874 -0.23751837 54
0.73317081 -1.3565369 -0.18436959 56
0.72134089 -1.3352058 -0.12942629 17
0.85806954 -1.5889544 -0.092326134 27
0.84456056 -1.5645919 -0.030367186 24
0.83923173 -1.5553694 0.46298429 20
0.85075593 -1.5773861 0.40460578 15
0.85900384 -1.593344 0.34410098 25
0.8475107 -1.5726829 0.27658388 21
0.84424824 -1.5672836 0.21357667 23
0.86353546 -1.6037594 0.15569754 27
0.83928496 -1.5593733 0.090500481 24
0.83764064 -1.5569693 0.029890768 29
0.7354508 -1.3698871 -0.4060812 58
0.73686868 -1.3731031 -0.35065833 73
0.71877438 -1.3399469 -0.28786287 74
0.72752863 -1.3568351 -0.23751837 61
0.7260868 -1.3547138 -0.18376112 56
0.72373241 -1.3508873 -0.13073361 20
0.85251784 -1.5919399 -0.092326134 26
0.83673477 -1.5631232 -0.030279925 25
0.83151877 -1.5540308 0.46169105 23
0.84294689 -1.57605 0.40348187 13
0.85343671 -1.5963327 0.34410098 24
0.83968824 -1.5712761 0.27580258 20
0.83877224 -1.5702212 0.21357667 24
0.85793203 -1.6067638 0.15569754 27
0.83383662 -1.5622934 0.090500481 23
0.82984746 -1.5554727 0.029804377 29
0.73066455 -1.3724459 -0.4060812 47
0.72749352 -1.367065 -0.34841052 54
0.71178764 -1.3381145 -0.28690967 62
0.72278798 -1.3593664 -0.23751837 57
0.72135347 -1.3572401 -0.18376112 53
0.7260232 -1.3666017 -0.13204095 20
0.84461391 -1.5904962 -0.092065327 28
0.83127332 -1.5660343 -0.030279925 26
0.82608908 -1.5569239 0.46169105 23
0.83744031 -1.5789829 0.40348187 15
0.84556037 -1.5949655 0.34314778 25
0.83419836 -1.5741975 0.27580258 20
0.83328599 -1.5731393 0.21357667 25
0.84998733 -1.6053468 0.15526263 28
0.82604241 -1.5607814 0.090239674 24
0.82207507 -1.553941 0.029717987 27
0.72361457 -1.3707169 -0.40478793 35
0.72044343 -1.3652871 -0.34728661 43
0.7048226 -1.3362495 -0.2859565 67
0.7180385 -1.3618811 -0.23751837 67
0.71429765 -1.3553594 -0.18315265 61
0.72821301 -1.3823484 -0.13334829 23
0.83905685 -1.5934347 -0.092065327 28
0.82347327 -1.5645026 -0.030192662 25
0.81840056 -1.5555236 0.46039781 22
0.82965583 -1.5775845 0.40235797 16
0.8399877 -1.5979074 0.34314778 24
0.82640111 -1.572728 0.27502126 22
0.82778966 -1.5760385 0.21357667 25
0.84206307 -1.6038938 0.15482773 27
0.82058924 -1.5636553 0.090239674 25
0.8166458 -1.5568011 0.029717987 29
0.71434569 -1.3646764 -0.40220144 29
0.70889717 -1.3548431 -0.3439149 20
0.69787914 -1.3343524 -0.2850033 48
0.71328026 -1.3643793 -0.23751837 62
0.70956218 -1.3578445 -0.18315265 45
0.73030168 -1.3981266 -0.13465562 25
0.83117855 -1.5919278 -0.091804519 27
0.81800711 -1.5673676 -0.030192662 26
0.81296581 -1.5583708 0.46039781 20
0.82414401 -1.5804709 0.40235797 18
0.83213615 -1.5964772 0.34219459 24
0.82090628 -1.5756031 0.27502126 22
0.81999081 -1.5745167 0.21296819 25
0.83415926 -1.6024051 0.15439282 29
0.81282127 -1.5620806 0.089978859 26
0.80889976 -1.5552071 0.029631598 27
0.70735276 -1.3628747 -0.4009082 15
0.70440042 -1.3571864 -0.3439149 7
0.69119006 -1.3323023 -0.28405011 22
0.70875192 -1.3667371 -0.23751837 62
0.70733935 -1.364596 -0.18376112 41
0.73482716 -1.4182311 -0.13639873 27
0.82589501 -1.5946753 -0.091804519 27
0.81050664 -1.5656316 -0.030105399 27
0.80557382 -1.5567687 0.45910454 21
0.81666005 -1.5788678 0.40123406 19
0.82458329 -1.5948679 0.34124142 24
0.81340945 -1.5739293 0.27423996 23
0.81476498 -1.5772271 0.21296819 26
0.82655561 -1.6007367 0.1539579 28
0.80763674 -1.5647676 0.089978859 25
0.803738 -1.5578809 0.029631598 28
0.69398654 -1.3480361 -0.39573517 7
0.71303433 -1.3856297 -0.35065833 11
0.68653524 -1.334707 -0.28405011 14
0.70397675 -1.3692027 -0.23751837 46
0.70484024 -1.3714708 -0.18436959 28
0.73897618 -1.4385097 -0.13814184 35
0.81804276 -1.5931066 -0.091543712 26
0.80503666 -1.5684514 -0.030105399 25
0.79793012 -1.5552739 0.4578113 23
0.81114382 -1.5817088 0.40123406 21
0.81677204 -1.5933685 0.34028822 24
0.80791044 -1.5767591 0.27423996 21
0.80699217 -1.5756445 0.21235971 26
0.8186931 -1.5991782 0.153523 27
0.79989517 -1.5631322 0.089718051 24
0.79601848 -1.5562263 0.029545208 28
0.70245111 -1.3762617 -0.40349469 16
0.71483558 -1.4011298 -0.35403004 11
0.6796422 -1.3327227 -0.28309694 8
0.69919306 -1.3716518 -0.23751837 33
0.70680785 -1.3871886 -0.18619505 26
0.73395038 -1.4410805 -0.13814184 35
0.7943542 -1.5603542 -0.089457244 22
0.79728955 -1.5667964 -0.030018136 26
0.79249626 -1.5580497 0.4578113 25
0.80340964 -1.5801877 0.40011016 19
0.81120521 -1.59621 0.34028822 24
0.80240166 -1.5795696 0.27423996 23
0.80148721 -1.5784518 0.21235971 25
0.81310588 -1.6020263 0.153523 29
0.79443389 -1.5659148 0.089718051 24
0.79058141 -1.5589952 0.029545208 28
0.70418477 -1.391634 -0.40737444 11
0.71653736 -1.4166591 -0.35740176 12
0.67941517 -1.3438476 -0.2850033 4
0.69662827 -1.3784918 -0.23829968 25
0.70643669 -1.3985069 -0.18741199 26
0.73116064 -1.4480799 -0.13857763 29
0.77315438 -1.531914 -0.087631583 27
0.79181558 -1.5695701 -0.030018136 25
0.78487819 -1.5564939 0.45651805 25
0.79569596 -1.5786319 0.39898625 21
0.80342001 -1.5946484 0.33933502 24
0.79466164 -1.57795 0.27345866 23
0.79374111 -1.576807 0.21175122 26
0.80526996 -1.6004053 0.15308809 28
0.7867195 -1.5642176 0.089457244 25
0.78288919 -1.5572789 0.029458819 29
0.70365399 -1.4027178 -0.40996096 12
0.71595544 -1.427862 -0.35964957 12
0.67911863 -1.354987 -0.28690967 7
0.69181222 -1.3809149 -0.23829968 15
0.70599496 -1.4098393 -0.18862896 25
0.72387189 -1.4461691 -0.13814184 26
0.74992877 -1.4988798 -0.085545123 30
0.78409576 -1.567853 -0.029930875 27
0.77944022 -1.5592241 0.45651805 25
0.79018068 -1.5813997 0.39898625 20
0.79784876 -1.5974431 0.33933502 24
0.78914881 -1.5807142 0.27345866 25
0.78601611 -1.5751274 0.21114275 25
0.79745531 -1.598749 0.15265319 30
0.77902657 -1.5624856 0.089196436 24
0.77744853 -1.5600021 0.029458819 29
0.70305443 -1.4138148 -0.41254744 13
0.71313554 -1.4347155 -0.3607735 13
0.68093657 -1.3705363 -0.28976923 7
0.68698764 -1.3833214 -0.23829968 12
0.70548272 -1.4211857 -0.18984592 31
0.71881944 -1.4486871 -0.13814184 35
0.75134796 -1.5149083 -0.086327545 34
0.77861822 -1.5705806 -0.029930875 24
0.77184832 -1.5576077 0.45522478 25
0.78249317 -1.5797824 0.39786234 20
0.79008996 -1.5958198 0.33838186 24
0.78143579 -1.5790331 0.27267733 25
0.78051317 -1.5778615 0.21114275 26
0.79186982 -1.601523 0.15265319 29
0.77135539 -1.5607189 0.088935629 26
0.76978415 -1.5582244 0.029372429 29
0.70025045 -1.4205924 -0.41384071 13
0.71268207 -1.4458125 -0.36302131 13
0.68072659 -1.3815926 -0.29167563 5
0.67366886 -1.3678703 -0.23517443 7
0.70514977 -1.4324223 -0.19106288 75
0.7096132 -1.4421244 -0.13727029 28
0.76174635 -1.5487554 -0.088153206 30
0.77120006 -1.5686675 -0.029843612 27
0.76667881 -1.5601587 0.45522478 23
0.77725017 -1.5823686 0.39786234 20
0.78479367 -1.5984311 0.33838186 22
0.77401948 -1.5771823 0.27189603 26
0.77309078 -1.5759856 0.21053427 25
0.78436166 -1.5996678 0.15221827 28
0.76397812 -1.5587847 0.088674821 26
0.76461267 -1.5607686 0.029372429 28
0.69765687 -1.427246 -0.41513398 13
0.70976979 -1.4526689 -0.36414522 13
0.68236172 -1.3971916 -0.29453519 7
0.68188888 -1.3968416 -0.23986229 4
0.70449811 -1.4437954 -0.19227985 69
0.70894194 -1.4535464 -0.13814184 17
0.76946414 -1.5783342 -0.089718051 28
0.76571971 -1.5713499 -0.029843612 25
0.75911325 -1.5584834 0.45393154 25
0.7695893 -1.5806917 0.39673844 21
0.77706158 -1.5967474 0.33742866 20
0.76634908 -1.5754335 0.27111471 28
0.76758486 -1.5786746 0.21053427 26
0.77877301 -1.6023959 0.15221827 29
0.75853235 -1.561442 0.088674821 24
0.75697619 -1.5589309 0.02928604 28
0.69477648 -1.4340192 -0.41642722 14
0.7089417 -1.4639074 -0.36639303 13
0.68175757 -1.4084008 -0.29644156 7
0.69421661 -1.4347776 -0.24611278 12
0.69729322 -1.4417781 -0.19167136 38
0.70603168 -1.4604967 -0.13857763 9
0.7748121 -1.6034899 -0.091022097 29
0.75805581 -1.5695115 -0.02975635 27
0.75366855 -1.5611236 0.45393154 24
0.76406693 -1.5833685 0.39673844 21
0.77148312 -1.5994501 0.33742866 18
0.76084512 -1.578099 0.27111471 25
0.75991505 -1.5768733 0.20992577 24
0.7710132 -1.6006171 0.15178336 29
0.75091106 -1.5595814 0.088414013 27
0.75152987 -1.5615637 0.02928604 28
0.69394803 -1.4451435 -0.41901374 14
0.70804381 -1.4751576 -0.36864081 13
0.68108344 -1.4196227 -0.29834792 6
0.70842314 -1.4772695 -0.25314459 14
0.69440144 -1.4486787 -0.19227985 19
0.69662493 -1.4539683 -0.13770607 4
0.76274002 -1.5926745 -0.090239674 30
0.75257254 -1.5721481 -0.02975635 26
0.74612993 -1.559388 0.4526383 26
0.75643325 -1.5816306 0.39561453 22
0.76377839 -1.597705 0.33647546 16
0.75320268 -1.5762892 0.27033341 26
0.75440609 -1.5795164 0.20992577 26
0.76542133 -1.6032987 0.15178336 29
0.74546254 -1.562193 0.088414013 26
0.74392217 -1.5596652 0.029199651 29
0.69305032 -1.4562794 -0.42160022 13
0.70707601 -1.4864196 -0.37088862 12
0.67823154 -1.4264243 -0.29930112 8
0.70326215 -1.4797333 -0.25314459 9
0.68295181 -1.4376456 -0.19045439 9
0.72786617 -1.5328825 -0.14511432 4
0.75717592 -1.5953273 -0.090239674 29
0.74493736 -1.5702487 -0.029669089 26
0.73861265 -1.557619 0.45134503 26
0.75090766 -1.5842614 0.39561453 20
0.75819665 -1.6003613 0.33647546 19
0.7455821 -1.5744452 0.26955208 26
0.74676472 -1.5776545 0.2093173 26
0.75768983 -1.6014583 0.15134846 28
0.74000496 -1.5647857 0.088414013 25
0.73633695 -1.5577328 0.029113261 30
0.69002295 -1.4630579 -0.42289349 12
0.70811558 -1.5020993 -0.37426034 11
0.6774326 -1.4376632 -0.30120748 8
0.70230114 -1.4911147 -0.25470719 11
0.67792928 -1.4400207 -0.19045439 4
0.7500813 -1.5940039 -0.15077944 3
0.74947733 -1.5934422 -0.089978859 29
0.73945159 -1.5728394 -0.029669089 27
0.73317105 -1.5601877 0.45134503 26
0.74330163 -1.582463 0.39449063 22
0.75051975 -1.5985552 0.33552229 23
0.74008167 -1.5770383 0.26955208 26
0.74125314 -1.5802516 0.2093173 25
0.7520951 -1.6040932 0.15134846 30
0.73241943 -1.562838 0.088153206 26
0.73089498 -1.5602936 0.029113261 29
0.69104677 -1.4785844 -0.42677325 11
0.70699215 -1.5133902 -0.37650815 10
0.67656344 -1.4489138 -0.30311388 6
0.70126939 -1.5025076 -0.25626981 10
0.69597852 -1.4918509 -0.1971477 4
0.74451262 -1.5966126 -0.15077944 3
0.74391067 -1.5960487 -0.089978859 28
0.73184574 -1.5708796 -0.029581826 26
0.72568172 -1.5583591 0.45005178 26
0.7377733 -1.585048 0.39449063 22
0.74286479 -1.5967151 0.3345691 23
0.73248988 -1.575134 0.26877078 26
0.73364061 -1.5783288 0.20870881 26
0.74439245 -1.6021916 0.15091355 29
0.72695959 -1.565385 0.088153206 24
0.72333926 -1.5583009 0.029026872 27
0.70008934 -1.5116663 -0.435826 10
0.70784515 -1.5291127 -0.37987986 9
0.67562383 -1.4601756 -0.30502024 6
0.70016646 -1.5139109 -0.25783244 9
0.71783859 -1.5528333 -0.20505793 15
0.71804202 -1.5539854 -0.14642164 2
0.73833483 -1.5986358 -0.089978859 27
0.72635788 -1.5734246 -0.029581826 27
0.72023755 -1.5608827 0.45005178 25
0.73019552 -1.5831896 0.39336672 21
0.73728669 -1.5992985 0.3345691 26
0.72698718 -1.5776813 0.26877078 25
0.7281267 -1.5808802 0.20870881 27
0.73879522 -1.6047802 0.15091355 27
0.71940374 -1.563377 0.087892391 26
0.71580625 -1.5562745 0.028940482 26
0.70689476 -1.5404391 -0.44358552 12
0.70656568 -1.540431 -0.38212767 9
0.67461401 -1.4714488 -0.30692664 7
0.69899249 -1.5253252 -0.25939506 12
0.70828038 -1.5463054 -0.20384097 12
0.70224583 -1.5338379 -0.14424275 2
0.73275006 -1.6012032 -0.089978859 26
0.71878165 -1.5714043 -0.029494565 26
0.71277636 -1.5589948 0.44875854 26
0.72466469 -1.5857289 0.39336672 21
0.72966021 -1.5973978 0.3336159 27
0.7214756 -1.5802094 0.26877078 26
0.72054356 -1.5788972 0.20810033 26
0.73318893 -1.6073493 0.15091355 28
0.71394211 -1.5658787 0.087892391 26
0.71036947 -1.5587636 0.028940482 28
0.71550691 -1.5736743 -0.4526383 14
0.70521575 -1.551759 -0.38437548 10
0.6735335 -1.4827322 -0.308833 6
0.69774729 -1.5367492 -0.26095769 11
0.70287848 -1.5487685 -0.20384097 10
0.68865675 -1.5181354 -0.14249964 2
0.72509444 -1.5992037 -0.089718051 26
0.71329206 -1.5739037 -0.029494565 26
0.70733017 -1.5614733 0.44875854 25
0.71711546 -1.5838103 0.39224282 20
0.72205609 -1.5954633 0.33266273 27
0.71391982 -1.5782185 0.26798946 26
0.71298319 -1.5768809 0.20749186 25
0.72552246 -1.6053598 0.15047863 27
0.70641631 -1.5638108 0.087631583 25
0.70286679 -1.5566775 0.028854093 27
0.71992797 -1.5981808 -0.45910454 15
0.70379537 -1.5630963 -0.38662329 11
0.67842561 -1.5074538 -0.31359896 9
0.6964308 -1.5481833 -0.26252028 9
0.6913625 -1.5376337 -0.20201553 6
0.68947875 -1.5341598 -0.14380698 2
0.71950775 -1.601725 -0.089718051 27
0.705746 -1.5718234 -0.029407302 27
0.69989771 -1.5595264 0.4474653 25
0.71158254 -1.5863039 0.39224282 20
0.71447432 -1.5934952 0.33170953 26
0.70840645 -1.5807009 0.26798946 26
0.70747447 -1.5793599 0.20749186 25
0.71787876 -1.6033362 0.15004371 27
0.70095325 -1.5662671 0.087631583 24
0.6974287 -1.5591214 0.028854093 27
0.71828151 -1.6095052 -0.46169105 12
0.70230442 -1.5744425 -0.38887113 12
0.68515182 -1.5367103 -0.31931809 6
0.69504291 -1.5596266 -0.26408291 5
0.67589414 -1.5173702 -0.19897313 3
0.69424903 -1.5593088 -0.14598587 4
0.71188217 -1.5996649 -0.089457244 28
0.70025504 -1.5742773 -0.029407302 29
0.69444966 -1.5619599 0.4474653 26
0.70406246 -1.5843259 0.39111891 20
0.7069152 -1.5914938 0.33075634 29
0.70088041 -1.5786504 0.26720816 28
0.6999442 -1.5772836 0.20688337 28
0.71025807 -1.601279 0.14960881 29
0.69345796 -1.56414 0.087370776 26
0.69198215 -1.5615463 0.028854093 29
0.71656471 -1.6208375 -0.46427754 11
0.70298946 -1.5901308 -0.39224282 13
0.68203598 -1.5434633 -0.32027125 4
0.69585305 -1.5754755 -0.26642683 5
0.68689311 -1.5559241 -0.20384097 4
0.69711775 -1.5798306 -0.14772898 4
0.70455861 -1.5974482 -0.089196436 30
0.69301409 -1.5720162 -0.029320041 31
0.68926626 -1.5642543 0.4474653 29
0.696841 -1.5821933 0.38999504 24
0.69965625 -1.5893371 0.32980317 30
0.69365263 -1.5764455 0.26642683 33
0.69271189 -1.5750531 0.2062749 31
0.70293963 -1.5990658 0.1491739 34
0.68826723 -1.5664307 0.087370776 27
0.68680006 -1.5638325 0.028854093 33
0.70343286 -1.6055093 -0.45910454 27
0.70134336 -1.6015006 -0.39449063 17
0.7061668 -1.613281 -0.3345691 13
0.69628799 -1.5914683 -0.26877078 5
0.69537699 -1.5901417 -0.20810033 4
0.69758362 -1.5959466 -0.14903632 6
0.69697911 -1.5953223 -0.088935629 36
0.6855219 -1.5698442 -0.02923278 45
0.68186957 -1.562224 0.446172 37
0.68936568 -1.5801504 0.38887113 38
0.69214213 -1.5872704 0.32884994 42
0.68617243 -1.57433 0.26564553 51
0.68522757 -1.5729117 0.20566641 55
0.69536501 -1.5969428 0.148739 42
0.68080258 -1.5642455 0.087109968 32
0.68133706 -1.5662203 0.028854093 58
0.69397873 -1.5990937 -0.45651805 37
0.69187117 -1.5949997 -0.39224282 12
0.68491125 -1.57971 -0.32694358 9
0.69858336 -1.6120148 -0.27189603 17
0.70165753 -1.6198833 -0.21175122 8
0.68805051 -1.5892298 -0.14816476 15
0.6874401 -1.5885805 -0.088414013 45
0.68003786 -1.5722276 -0.02923278 68
0.6744957 -1.5601615 0.44487876 60
0.68191308 -1.5780746 0.3877472 43
0.68465114 -1.5851709 0.32789677 46
0.67871535 -1.5721815 0.26486424 55
0.67776668 -1.5707374 0.20505793 63
0.6878137 -1.5947866 0.14830408 53
0.67533827 -1.5666122 0.087109968 59
0.67586577 -1.5685891 0.028854093 72
0.68457788 -1.5926318 -0.45393154 63
0.68245298 -1.5884523 -0.38999504 34
0.67551947 -1.573071 -0.32503721 39
0.68321276 -1.5917523 -0.26798946 35
0.69599885 -1.6223228 -0.21175122 15
0.67268384 -1.5687327 -0.14598587 32
0.67992371 -1.586381 -0.088153206 62
0.67257708 -1.5699966 -0.029145516 79
0.66714448 -1.5580664 0.44358552 66
0.67448354 -1.5759664 0.38662329 64
0.67718327 -1.5830382 0.32694358 62
0.67322332 -1.5745411 0.26486424 76
0.67032945 -1.5685301 0.20444946 76
0.68028605 -1.5925971 0.14786917 77
0.66790503 -1.564368 0.08684916 65
0.67038625 -1.5709388 0.028854093 82
0.67712265 -1.5905679 -0.4526383 75
0.67308885 -1.5818585 -0.3877472 48
0.66810334 -1.5709026 -0.32408401 52
0.67378825 -1.5850375 -0.26642683 40
0.67868716 -1.5973364 -0.20810033 38
0.66330981 -1.5619019 -0.14511432 51
0.67048007 -1.5795521 -0.087631583 79
0.66904515 -1.5769368 -0.02923278 84
0.66170174 -1.5603857 0.44358552 72
0.66897827 -1.5783112 0.38662329 70
0.66973865 -1.580873 0.32599038 77
0.66579735 -1.5723338 0.26408291 83
0.66485018 -1.5708604 0.20444946 83
0.67278206 -1.5903746 0.14743426 84
0.66244024 -1.5666898 0.08684916 80
0.66489857 -1.5732694 0.028854093 87
0.67156637 -1.5929217 -0.4526383 85
0.66567117 -1.5797087 -0.38662329 75
0.66071057 -1.5687019 -0.32313082 74
0.664419 -1.5782765 -0.26486424 67
0.66733295 -1.5859725 -0.2062749 56
0.6539917 -1.555025 -0.14424275 67
0.66689724 -1.5864859 -0.087892391 81
0.65772712 -1.5654359 -0.028970992 76
0.6543808 -1.5582328 0.44229224 76
0.66157913 -1.5761442 0.38549939 68
0.6623174 -1.578675 0.32503721 77
0.66030478 -1.5746483 0.26408291 81
0.65744436 -1.5685945 0.20384097 83
0.66530192 -1.5881193 0.14699936 82
0.65696752 -1.5689926 0.08684916 81
0.65940279 -1.5755807 0.028854093 85
0.66600198 -1.5952562 -0.4526383 85
0.66202909 -1.5865189 -0.3877472 83
0.65523076 -1.5709985 -0.32313082 80
0.65700537 -1.5760278 -0.26408291 78
0.65606654 -1.5745492 -0.20444946 74
0.65047467 -1.5618966 -0.14467853 72
0.64792329 -1.5565358 -0.086066738 61
0.62537342 -1.5031027 -0.027749324 54
0.64893752 -1.5605075 0.44229224 72
0.65607339 -1.5784441 0.38549939 68
0.65680277 -1.5809773 0.32503721 74
0.65291035 -1.5723826 0.26330161 82
0.65196496 -1.5708798 0.20384097 83
0.65784568 -1.585831 0.14656444 84
0.65148669 -1.5712763 0.08684916 82
0.65198505 -1.5732543 0.028767703 90
0.66042942 -1.5975714 -0.4526383 83
0.65648705 -1.5888202 -0.3877472 83
0.64974296 -1.573276 -0.32313082 81
0.65150005 -1.5783116 -0.26408291 82
0.64867347 -1.5722419 -0.20384097 74
0.61653501 -1.4950852 -0.13814184 53
0.61965293 -1.5033908 -0.082937032 46
0.60679299 -1.4729198 -0.02713849 38
0.63980854 -1.5538311 0.43970576 75
0.64685112 -1.5717138 0.38325158 74
0.64941281 -1.578721 0.32408401 76
0.64741772 -1.5746521 0.26330161 81
0.64647758 -1.5731461 0.20384097 83
0.65230614 -1.5881176 0.14656444 84
0.64599788 -1.5735408 0.08684916 81
0.64648932 -1.5755206 0.028767703 86
0.65850794 -1.6088067 -0.45522478 69
0.65093708 -1.5911021 -0.3877472 85
0.64053184 -1.5664483 -0.32122445 83
0.64411837 -1.5760046 -0.26330161 82
0.6394279 -1.565308 -0.20262401 72
0.5868358 -1.4372802 -0.13247673 43
0.58798856 -1.440822 -0.079285726 47
0.58087873 -1.4241104 -0.02617861 38
0.63255745 -1.5515826 0.43841249 76
0.64136088 -1.5739621 0.38325158 70
0.64389813 -1.5809784 0.32408401 73
0.6400553 -1.5723283 0.26252028 78
0.63724166 -1.5661994 0.20262401 84
0.64488214 -1.5857708 0.14612953 83
0.64050126 -1.5757864 0.08684916 79
0.63910425 -1.5731362 0.028681314 86
0.64563233 -1.5931906 -0.45005178 36
0.6435501 -1.5888489 -0.38662329 82
0.63321811 -1.5641249 -0.32027125 80
0.63676071 -1.5736654 -0.26252028 66
0.62837785 -1.5537281 -0.20079857 59
0.55941463 -1.3839043 -0.12724738 40
0.57547361 -1.4243472 -0.078242488 44
0.56467247 -1.3983159 -0.025655035 36
0.6199066 -1.535866 0.43323949 59
0.62857187 -1.5581183 0.37875596 53
0.63837558 -1.5832164 0.32408401 66
0.62717879 -1.5562307 0.25939506 69
0.62435359 -1.5500007 0.2001901 71
0.6393429 -1.5880123 0.14612953 79
0.63313287 -1.5733802 0.086588353 80
0.6298781 -1.5660812 0.028508535 83
0.60589844 -1.5102656 -0.42547998 21
0.63827771 -1.5909743 -0.38662329 70
0.61524045 -1.5343264 -0.31359896 38
0.62051541 -1.5482637 -0.25783244 38
0.60845846 -1.5189476 -0.19593073 30
0.55111963 -1.3765036 -0.12637582 43
0.56518173 -1.4123404 -0.077460065 43
0.54889303 -1.3723304 -0.025131464 44
0.58433127 -1.4616722 0.4112542 48
0.59447765 -1.4878061 0.3607735 43
0.62037909 -1.5534167 0.31741169 57
0.59455228 -1.4895016 0.24767539 60
0.59162486 -1.4829195 0.19106288 70
0.62484854 -1.5669899 0.14395499 65
0.61127406 -1.5337259 0.084241085 65
0.59137988 -1.4845635 0.026953524 81
0.56165051 -1.4135194 -0.39702845 10
0.62013251 -1.5614964 -0.37875596 56
0.5790965 -1.4589099 -0.29739475 37
0.58596778 -1.4769721 -0.24533147 37
0.57571226 -1.4518617 -0.18680352 20
0.54264086 -1.3691579 -0.12550427 47
0.55840939 -1.4096624 -0.077199258 49
0.54225904 -1.36959 -0.025044201 56
0.55079025 -1.3918471 0.39056218 46
0.56240153 -1.421914 0.3439149 44
0.58066791 -1.4688462 0.29930112 51
0.56212723 -1.4226724 0.23595574 59
0.56274706 -1.4249687 0.18315265 67
0.58097017 -1.4718646 0.13482189 56
0.58026236 -1.4708229 0.080589764 58
0.55868638 -1.4168575 0.025657682 71
0.55671299 -1.4154712 -0.39702845 13
0.58794135 -1.4956373 -0.36189741 37
0.54348695 -1.3832607 -0.28119054 38
0.55012047 -1.4008625 -0.2320492 34
0.54344213 -1.3845664 -0.17767631 30
0.53603923 -1.3664068 -0.12506849 57
0.55166268 -1.4069543 -0.07693845 58
0.53747499 -1.3714746 -0.025044201 57
0.53712094 -1.3712754 0.38409594 44
0.54500192 -1.3921112 0.33604759 37
0.55228621 -1.4114432 0.28690967 52
0.5463652 -1.3970298 0.23126788 60
0.54512197 -1.3945686 0.17889327 65
0.55407757 -1.4182093 0.12960298 70
0.54606521 -1.3984208 0.076416828 56
0.53737867 -1.3768848 0.024880175 60
0.55527282 -1.4264075 -0.39961493 13
0.55268466 -1.4204924 -0.34279102 37
0.53153932 -1.3668509 -0.27737778 51
0.53985977 -1.3889647 -0.22970524 48
0.53501159 -1.3772031 -0.17645934 39
0.53126633 -1.3682696 -0.12506849 61
0.5467481 -1.4088714 -0.07693845 55
0.53449219 -1.3780031 -0.025131464 36
0.53058517 -1.3686386 0.38280267 47
0.54013926 -1.3940052 0.33604759 31
0.54381078 -1.4042083 0.2850033 48
0.53970265 -1.394323 0.23048657 50
0.53846008 -1.3918343 0.17828478 55
0.54553092 -1.4108431 0.12873317 80
0.53398061 -1.3816886 0.075373597 45
0.5307678 -1.3740888 0.024793785 40
0.55376315 -1.437351 -0.40220144 14
0.54071993 -1.4042267 -0.3382954 35
0.53029078 -1.3778596 -0.27928415 36
0.53323507 -1.3862314 -0.22892395 38
0.53020102 -1.3790621 -0.17645934 47
0.52648693 -1.3701156 -0.12506849 37
0.54003668 -1.40611 -0.076677635 41
0.53147036 -1.3845277 -0.025218725 27
0.52407438 -1.3659731 0.38150942 39
0.53526998 -1.3958821 0.33604759 20
0.54066253 -1.4106812 0.2859565 35
0.53836548 -1.4054219 0.2320492 40
0.53359842 -1.3937054 0.17828478 32
0.54416317 -1.4220428 0.12960298 90
0.53272176 -1.3928715 0.075895213 54
0.52596813 -1.3759331 0.024793785 28
0.54874241 -1.4392753 -0.40220144 15
0.53061038 -1.3924475 -0.33492368 26
0.52198398 -1.3705285 -0.27737778 30
0.53014994 -1.3926998 -0.22970524 31
0.52714872 -1.3855429 -0.17706783 35
0.52347159 -1.3766009 -0.12550427 29
0.53689909 -1.412654 -0.07693845 25
0.53018469 -1.3957212 -0.025393249 18
0.51930314 -1.367794 0.38150942 38
0.53903669 -1.4205176 0.34166712 15
0.54095674 -1.4263279 0.28881606 27
0.53870779 -1.4211464 0.23439312 44
0.52521366 -1.3862776 0.17706783 19
0.53919601 -1.4239336 0.12960298 93
0.53315872 -1.4087324 0.076677635 69
0.52646822 -1.3917885 0.025052954 18
0.54371512 -1.441182 -0.40220144 16
0.53434145 -1.4170847 -0.34054321 12
0.52065867 -1.381528 -0.27928415 19
0.52702612 -1.3991636 -0.23048657 21
0.52405757 -1.3920192 -0.17767631 22
0.52041727 -1.3830817 -0.12594004 19
0.5337224 -1.4191933 -0.077199258 17
0.52882743 -1.4069225 -0.025567774 15
0.51282686 -1.3650771 0.38021615 41
0.54263783 -1.4451962 0.34728661 16
0.53942364 -1.4373982 0.29072243 24
0.53894693 -1.4368902 0.23673706 41
0.52037144 -1.3881024 0.17706783 10
0.5342223 -1.4258071 0.12960298 85
0.53349143 -1.4246131 0.077460065 89
0.52686405 -1.4076637 0.025312122 16
0.53868109 -1.443071 -0.40220144 14
0.52428246 -1.4052472 -0.33717149 8
0.5209778 -1.3971342 -0.28214374 16
0.52558821 -1.4102499 -0.2320492 17
0.52266008 -1.4031414 -0.17889327 14
0.51906198 -1.3942257 -0.12681161 13
0.53573048 -1.4397665 -0.078242488 14
0.52914095 -1.422817 -0.025829561 15
0.50805873 -1.366859 0.38021615 43
0.5460732 -1.4699168 0.35290614 14
0.53781992 -1.4484751 0.29262879 17
0.53564626 -1.4433928 0.23751837 32
0.51379704 -1.3852575 0.17645934 7
0.52924204 -1.4276632 0.12960298 76
0.53371966 -1.4405131 0.078242488 80
0.52889144 -1.428247 0.025657682 17
0.53364056 -1.4449426 -0.40220144 15
0.51937401 -1.4070687 -0.33717149 8
0.52119428 -1.4127589 -0.2850033 16
0.52407944 -1.4213433 -0.23361182 15
0.52119124 -1.4142708 -0.18011025 14
0.51935673 -1.4100511 -0.12811893 14
0.53760129 -1.460371 -0.079285726 16
0.53107613 -1.4434226 -0.02617861 16
0.50161749 -1.3640909 0.37892288 46
0.54934245 -1.4946787 0.35852566 15
0.53783774 -1.4641654 0.29548836 12
0.52720046 -1.4359818 0.23595574 18
0.51237762 -1.3963605 0.17767631 6
0.52425534 -1.4295019 0.12960298 85
0.53040648 -1.4470556 0.078503296 51
0.52906173 -1.4441669 0.02591685 17
0.52527863 -1.4377234 -0.39961493 14
0.51780158 -1.4180261 -0.33941931 7
0.5229907 -1.433013 -0.28881606 16
0.5241918 -1.4370826 -0.23595574 15
0.519651 -1.4254066 -0.18132719 13
0.51784205 -1.4212154 -0.1289905 15
0.54104328 -1.4856974 -0.080589764 17
0.53116387 -1.4593608 -0.026440395 16
0.49685282 -1.3658335 0.37892288 46
0.55244547 -1.5194814 0.36414522 16
0.53439993 -1.4706471 0.29644156 10
0.52049887 -1.4331713 0.23517443 11
0.51088691 -1.4074707 0.17889327 13
0.51756346 -1.4266407 0.12916808 46
0.52194798 -1.43951 0.077981681 25
0.52912724 -1.4601053 0.026176019 19
0.51861525 -1.435006 -0.39832169 13
0.51946914 -1.438154 -0.3439149 12
0.52298534 -1.4486797 -0.29167563 16
0.5258767 -1.4574856 -0.23908098 16
0.51972288 -1.4412177 -0.18315265 13
0.51963341 -1.441758 -0.13073361 16
0.54262275 -1.5063678 -0.081632994 19
0.53284025 -1.4800206 -0.026789442 18
0.49044687 -1.3630151 0.37762964 49
0.55538183 -1.5443236 0.36976472 21
0.53092337 -1.4771225 0.29739475 8
0.51382333 -1.4303317 0.23439312 8
0.50764787 -1.4139165 0.17950176 14
0.51089811 -1.4237504 0.12873317 32
0.51186299 -1.427223 0.077199258 16
0.53077477 -1.4807676 0.026521577 19
0.51035148 -1.4277115 -0.39573517 9
0.51936334 -1.4537226 -0.34728661 11
0.52452743 -1.4689863 -0.29548836 16
0.52742559 -1.4779172 -0.24220623 16
0.52135783 -1.4617206 -0.18558656 15
0.51961511 -1.4576385 -0.13204095 16
0.54574019 -1.5317706 -0.082937032 20
0.53605574 -1.5054195 -0.027225751 17
0.48406675 -1.3601683 0.3763364 52
0.55162048 -1.5508431 0.37088862 31
0.52576399 -1.4789668 0.29739475 8
0.50882745 -1.4321165 0.23439312 8
0.50436997 -1.4203565 0.18011025 13
0.50425923 -1.4208308 0.12829827 20
0.5035395 -1.419589 0.076677635 10
0.53395492 -1.506171 0.026953524 21
0.50375491 -1.4249306 -0.39444193 8
0.52077818 -1.4739016 -0.35178223 12
0.5275684 -1.4939493 -0.30025432 16
0.5288381 -1.4983774 -0.24533147 17
0.52450687 -1.4869325 -0.18862896 15
0.5228045 -1.4829314 -0.13421984 16
0.54868692 -1.5572133 -0.084241085 25
0.53910035 -1.5308583 -0.027662061 23
0.47931588 -1.3618499 0.3763364 55
0.54782033 -1.5573552 0.37201253 56
0.52222615 -1.4854236 0.29834792 9
0.50382531 -1.4338839 0.23439312 18
0.49940896 -1.4221084 0.18011025 16
0.4976469 -1.4178823 0.12786335 12
0.49527559 -1.4119147 0.07615602 8
0.536964 -1.5316143 0.02738547 31
0.49877793 -1.4266803 -0.39444193 8
0.52205843 -1.4941078 -0.35627785 13
0.52882326 -1.5143172 -0.30406705 19
0.5317415 -1.5235281 -0.24923801 18
0.52585155 -1.507498 -0.19106288 17
0.52582347 -1.5082639 -0.13639873 20
0.54981953 -1.5779797 -0.085284315 39
0.54197383 -1.5563368 -0.028098373 43
0.47297165 -1.3589531 0.37504312 59
0.54558218 -1.5684611 0.37426034 70
0.51703787 -1.4872375 0.29834792 9
0.49881706 -1.4356338 0.23439312 14
0.49444181 -1.4238431 0.18011025 15
0.49269453 -1.4196109 0.12786335 10
0.48707139 -1.4042 0.075634405 6
0.53980184 -1.5570967 0.027817419 58
0.49221677 -1.4238479 -0.39314869 8
0.52187634 -1.5096447 -0.35964957 13
0.53181297 -1.5392588 -0.308833 30
0.53474605 -1.5486237 -0.25314459 27
0.52894467 -1.53269 -0.19410528 23
0.53056365 -1.5382518 -0.13901341 29
0.54458368 -1.5797944 -0.085284315 90
0.54495192 -1.5817584 -0.028534682 97
0.46846262 -1.360514 0.37504312 60
0.54196322 -1.5748684 0.37538424 78
0.5121032 -1.4889439 0.29834792 11
0.49565899 -1.4419504 0.23517443 14
0.48810503 -1.4207814 0.17950176 17
0.49283692 -1.4353702 0.12916808 7
0.48079157 -1.4010845 0.075373597 10
0.54274446 -1.5825224 0.028249366 100
0.48749241 -1.4254723 -0.39314869 8
0.52133071 -1.525288 -0.36302131 13
0.53595656 -1.5689744 -0.31455213 83
0.53891069 -1.578523 -0.25783244 69
0.53160459 -1.5580121 -0.1971477 43
0.53322929 -1.5636666 -0.1411923 68
0.5390659 -1.5816857 -0.085284315 111
0.54103911 -1.5883833 -0.028621946 106
0.46371064 -1.3621411 0.37504312 64
0.53803194 -1.5813632 0.37650815 69
0.50690269 -1.4907223 0.29834792 12
0.49221173 -1.4483478 0.23595574 11
0.48314258 -1.4224765 0.17950176 14
0.49422798 -1.4559486 0.13090771 11
0.47429374 -1.3980259 0.07511279 11
0.53882247 -1.589142 0.028335756 105
0.4794198 -1.4180144 -0.39056218 8
0.51600331 -1.5270985 -0.36302131 14
0.53675818 -1.5894369 -0.31836489 105
0.53655595 -1.5897532 -0.25939506 103
0.53409404 -1.5833707 -0.2001901 100
0.52935898 -1.5702381 -0.14162809 101
0.53354156 -1.5835576 -0.085284315 109
0.53389597 -1.5855243 -0.028534682 102
0.45741251 -1.3591738 0.37374988 64
0.53406191 -1.5878495 0.37763205 53
0.5032599 -1.4971352 0.29930112 14
0.48872584 -1.4547386 0.23673706 9
0.47817427 -1.4241542 0.17950176 12
0.49548125 -1.4765539 0.13264735 11
0.46941084 -1.3996729 0.07511279 12
0.53168321 -1.586273 0.028249366 101
