# .PCD v0.7 - Point Cloud Data file format
VERSION 0.7
FIELDS x y z intensity
SIZE 4 4 4 4
TYPE F F F F
COUNT 1 1 1 1
WIDTH 1373
HEIGHT 1
VIEWPOINT 0 0 0 1 0 0 0
POINTS 1373
DATA ascii
2.9805496 -1.5429907 0.6443553 8
2.9458301 -1.5256689 0.51879013 37
2.9554594 -1.5313102 0.40342256 9
2.9880235 -1.5488443 0.29051945 10
2.9594934 -1.534711 0.17213348 9
2.9450254 -1.5278608 0.056671511 14
nan nan nan 0
1.8666077 -0.97086644 -0.47653568 15
2.0063443 -1.0439918 -0.43179429 2
2.3249674 -1.2103014 -0.40862536 3
2.2699838 -1.1821823 -0.30910811 14
2.2602787 -1.1776297 -0.21963248 13
2.3009567 -1.199334 -0.13353385 13
2.2946262 -1.1965437 -0.044503633 14
2.9415166 -1.5345209 0.87811828 11
2.94505 -1.5370181 0.75751191 15
2.9577417 -1.5442985 0.64054251 9
2.9229767 -1.5267965 0.51566488 28
2.9281034 -1.5301249 0.40038019 9
2.9649422 -1.5500342 0.2887798 11
2.9319954 -1.5334617 0.17082943 9
2.9175267 -1.5265429 0.056239564 15
nan nan nan 0
1.8373203 -0.96379685 -0.46979225 15
2.0026879 -1.0509888 -0.43179429 2
2.2682574 -1.1908617 -0.39924961 5
2.2614498 -1.1877911 -0.3084996 14
2.2517447 -1.1831952 -0.21919669 13
2.2967565 -1.2073585 -0.13353385 13
2.2904356 -1.2045462 -0.044503633 15
2.9147706 -1.5335351 0.87165201 11
2.926733 -1.5404811 0.75414026 14
2.9306183 -1.5431792 0.63577664 9
2.9045212 -1.5300848 0.51332092 10
2.9051828 -1.5310812 0.39794627 8
2.9418888 -1.551082 0.28704017 11
2.9089587 -1.5343688 0.1697862 8
2.8944945 -1.5273854 0.055894006 14
nan nan nan 0
1.8253319 -0.96564794 -0.46754444 15
2.0033453 -1.060269 -0.43274748 2
2.2684512 -1.2010831 -0.40003094 4
2.2572894 -1.1956778 -0.3084996 14
2.247601 -1.1910481 -0.21919669 13
2.2881162 -1.2130295 -0.13327304 14
2.2818005 -1.2101915 -0.044416368 15
2.8923337 -1.534645 0.86647898 11
2.904125 -1.5415508 0.74964464 14
2.9078736 -1.5441912 0.63196379 9
2.8817174 -1.5309464 0.51019567 8
2.8822913 -1.5318964 0.39551234 9
2.9188645 -1.5519879 0.28530052 11
2.8859518 -1.5351338 0.16874297 8
2.8714921 -1.5280855 0.055548448 14
nan nan nan 0
1.8090546 -0.96513385 -0.46417275 15
1.999632 -1.0672556 -0.43274748 2
2.2729576 -1.2136464 -0.40159354 3
2.2487249 -1.2012117 -0.30789116 15
2.2390368 -1.1965389 -0.21876092 13
2.2838681 -1.2210091 -0.13327304 13
2.2775624 -1.2181491 -0.044416368 15
2.869925 -1.5356174 0.86130601 11
2.877249 -1.5401821 0.74402505 14
2.8851578 -1.5450639 0.62815106 9
2.858943 -1.5316671 0.50707042 8
2.8594298 -1.5325702 0.39307842 9
2.89587 -1.552752 0.2835609 11
2.8629749 -1.5357571 0.16769974 9
2.8485208 -1.5286437 0.05520289 14
nan nan nan 0
1.7972622 -0.96651244 -0.46192494 16
1.9960818 -1.0738807 -0.43274748 2
2.2819669 -1.2281989 -0.40393749 3
2.2403593 -1.2063092 -0.30728266 15
2.2350566 -1.2039572 -0.21876092 13
2.2754109 -1.2262074 -0.13301224 14
2.26911 -1.2233229 -0.044329111 15
2.8478131 -1.5359548 0.85613298 11
2.854975 -1.5404608 0.73952943 14
2.8627415 -1.5452968 0.62433833 9
2.8364663 -1.5317527 0.50394523 8
2.8368666 -1.5326084 0.39064452 9
2.8731773 -1.5528731 0.28182125 11
2.8402977 -1.5357432 0.16665649 9
2.8258471 -1.5285672 0.054857332 15
1.3287085 -0.72022927 -0.39444193 2
1.7853116 -0.96813512 -0.4596771 15
1.9880068 -1.0785013 -0.43179429 3
2.2906873 -1.243224 -0.40628141 3
2.2317734 -1.2117541 -0.30667418 15
2.2264633 -1.2093742 -0.21832512 13
2.271117 -1.2341427 -0.13301224 14
2.2648258 -1.2312361 -0.044329111 15
2.8254626 -1.536656 0.85095996 11
2.8324623 -1.5411034 0.73503381 14
2.840086 -1.5458939 0.6205256 9
2.8094161 -1.5298357 0.50003862 8
2.8140666 -1.533005 0.38821056 9
2.850244 -1.5533583 0.28008163 10
2.817384 -1.5360875 0.16561326 9
2.8029387 -1.5288465 0.054511774 14
1.3516148 -0.73876154 -0.40220144 2
1.7733718 -0.96968627 -0.45742929 14
1.98423 -1.0854341 -0.43179429 2
2.2690048 -1.241729 -0.40315616 3
2.22753 -1.2195371 -0.30667418 15
2.2178597 -1.214746 -0.21788937 13
2.2624161 -1.2396632 -0.13275142 14
2.2561305 -1.2367312 -0.044241846 15
2.8031418 -1.5372199 0.84578699 11
2.8099794 -1.5416075 0.73053825 14
2.8174613 -1.5463519 0.61671281 9
2.7867429 -1.5301253 0.4969134 7
2.7912993 -1.5332612 0.38577664 9
2.827343 -1.5537024 0.27834198 10
2.7945025 -1.5362908 0.16457003 9
2.7800632 -1.5289847 0.054166216 14
1.3532578 -0.74580634 -0.40349469 2
1.7657098 -0.97351831 -0.45630541 10
1.9761312 -1.0899832 -0.43084112 3
2.294924 -1.2663436 -0.40862536 3
2.2189147 -1.2249067 -0.30606568 15
2.2136061 -1.2224804 -0.21788937 14
2.2537048 -1.2451384 -0.13249062 13
2.2517996 -1.244599 -0.044241846 15
2.7808518 -1.5376468 0.84061396 11
2.7875283 -1.5419736 0.72604263 14
2.794868 -1.5466708 0.61290008 10
2.7641027 -1.5302756 0.49378815 8
2.7685642 -1.5333772 0.38334271 9
2.8044746 -1.5539058 0.27660233 11
2.7716541 -1.536353 0.1635268 9
2.7572212 -1.5289818 0.053820658 14
1.333759 -0.74114162 -0.39832169 2
1.7537843 -0.97494143 -0.4540576 7
1.9723145 -1.0968746 -0.43084112 3
2.2904897 -1.2743467 -0.40862536 2
2.2146254 -1.2326447 -0.30606568 15
2.2049737 -1.2277766 -0.21745357 14
2.2493446 -1.2529979 -0.13249062 14
2.2430747 -1.2500181 -0.044154584 15
2.7543747 -1.5355849 0.83414769 11
2.7651088 -1.5422019 0.72154701 14
2.7723072 -1.5468512 0.60908735 9
2.7414949 -1.5302864 0.49066293 8
2.745863 -1.5333533 0.38090879 9
2.7816393 -1.5539687 0.27486271 10
2.7488396 -1.5362747 0.16248357 9
2.7344131 -1.5288384 0.053475101 14
nan nan nan 0
1.7418704 -0.97629321 -0.45180979 6
1.9684737 -1.1037526 -0.43084112 2
2.4712374 -1.3862267 -0.4422217 5
2.2059815 -1.237939 -0.30545723 15
2.1963308 -1.2330275 -0.2170178 14
2.2406034 -1.2583965 -0.1322298 14
2.2343392 -1.2553914 -0.044067323 15
2.7321568 -1.5357239 0.82897466 12
2.7427218 -1.5422925 0.71705133 14
2.7497795 -1.5468928 0.60527456 10
2.7189214 -1.5301583 0.48753768 9
2.7231956 -1.5331898 0.37847489 10
2.7588382 -1.5538912 0.27312306 11
2.7260599 -1.5360558 0.16144034 9
2.7116399 -1.5285541 0.053129543 15
1.9173015 -1.0829906 -0.579377 8
1.7384518 -0.98236746 -0.45180979 5
1.9688815 -1.1130326 -0.43179429 2
2.5265658 -1.4288801 -0.45316002 18
2.2016468 -1.2456318 -0.30545723 15
2.1920133 -1.2406867 -0.2170178 14
2.236197 -1.2662102 -0.1322298 14
2.2255936 -1.2607191 -0.043980062 15
2.7099712 -1.5357264 0.8238017 12
2.7203681 -1.5422456 0.71255571 15
2.7272851 -1.5467961 0.60146183 10
2.7006772 -1.5323284 0.48519379 8
2.7048795 -1.5353367 0.37664947 9
2.7360716 -1.5536734 0.27138343 12
2.7033153 -1.5356969 0.16039711 9
2.6889021 -1.5281298 0.052783981 14
1.9219036 -1.0944568 -0.58196354 24
1.7688783 -1.0077232 -0.46080104 8
1.9649843 -1.1198984 -0.43179429 2
2.5129821 -1.4327984 -0.45159739 13
2.1929743 -1.2508504 -0.30484873 16
2.1833432 -1.245862 -0.21658202 14
2.2274275 -1.2715328 -0.131969 14
2.2211792 -1.2684802 -0.043980062 15
2.6878195 -1.535593 0.81862867 12
2.6980486 -1.5420618 0.70806009 11
2.7090864 -1.5489978 0.59860224 10
2.678165 -1.5319378 0.48206854 8
2.6822736 -1.5349095 0.37421554 9
2.7176633 -1.5557908 0.27007872 11
2.6806061 -1.5351977 0.15935387 9
2.6705384 -1.5300508 0.052524816 14
1.8929396 -1.0867307 -0.57420403 28
1.7908785 -1.0281378 -0.46754444 8
1.96126 -1.1264083 -0.43179429 2
2.4996526 -1.4362032 -0.4500348 10
2.1888142 -1.2581158 -0.30484873 16
2.1791997 -1.2530954 -0.21658202 14
2.2231987 -1.2789123 -0.131969 14
2.2126276 -1.2733454 -0.043892797 15
2.6659694 -1.5348585 0.81345564 11
2.6802547 -1.5437056 0.70468843 11
2.6869233 -1.5481712 0.59478951 10
2.6559551 -1.5309452 0.47894326 8
2.659972 -1.5338792 0.37178159 9
2.695231 -1.5548381 0.26833907 11
2.6582019 -1.5340952 0.15831064 9
2.6481316 -1.5288996 0.052179258 15
1.8976867 -1.0978392 -0.57679051 34
1.7914954 -1.0368234 -0.46866837 8
1.957316 -1.1332476 -0.43179429 2
nan nan nan 0
2.1801155 -1.2632604 -0.30424026 16
2.1748121 -1.2606946 -0.21658202 14
2.2187209 -1.2866648 -0.131969 15
2.2038453 -1.2785524 -0.04380554 15
2.6438866 -1.5344574 0.80828267 12
2.6579964 -1.5432668 0.70019281 11
2.6687703 -1.550145 0.59192997 10
2.6335151 -1.5302819 0.47581801 9
2.6417303 -1.5356724 0.36995617 10
2.6768694 -1.5567244 0.26703432 11
2.6398833 -1.5358319 0.15752821 9
2.6298165 -1.5305897 0.051920086 15
1.8980151 -1.1068897 -0.57808375 38
1.7836571 -1.0406152 -0.46754444 8
1.9533484 -1.1400731 -0.43179429 2
1.9777875 -1.1547998 -0.35627756 4
2.1756926 -1.2708628 -0.30424026 16
2.1660979 -1.2657654 -0.21614625 14
2.2099051 -1.2918817 -0.13170819 15
2.199369 -1.2862376 -0.04380554 16
2.6260076 -1.5363599 0.80440289 12
2.6357741 -1.5426915 0.69569719 11
2.6464002 -1.5495312 0.58811718 10
2.6153736 -1.5319771 0.47347412 8
2.619226 -1.5348479 0.36752224 10
2.6585276 -1.5585017 0.26572961 11
2.6172776 -1.5349336 0.15648498 9
2.6072099 -1.529641 0.051574528 15
1.9024673 -1.1184037 -0.58067024 41
1.7758143 -1.0443653 -0.46642056 8
1.9535873 -1.1493735 -0.43274748 3
1.9694884 -1.1591914 -0.35549623 7
2.1669664 -1.2759315 -0.30363178 15
2.1616664 -1.2733189 -0.21614625 14
2.2053821 -1.299588 -0.13170819 14
2.1905589 -1.2913679 -0.043718275 12
2.6039875 -1.5357031 0.79922986 11
2.6177843 -1.5444555 0.69232541 11
2.6240673 -1.54878 0.58430439 10
2.5929997 -1.5310532 0.47034886 8
2.6010334 -1.5364091 0.36569679 9
2.6402066 -1.5601701 0.26442489 11
2.5990088 -1.5364373 0.15570255 9
2.5889459 -1.5310982 0.051315363 15
1.9027069 -1.1275001 -0.58196354 46
1.7679669 -1.0480732 -0.46529663 10
1.9495634 -1.1561856 -0.43274748 3
1.9611826 -1.1635394 -0.35471493 11
2.1624994 -1.2834878 -0.30363178 16
2.1572084 -1.2808567 -0.21614625 14
2.1965396 -1.3047283 -0.13144739 15
2.18174 -1.2964528 -0.043631013 12
2.5861561 -1.5373791 0.79535013 12
2.5956273 -1.5436227 0.68782979 11
2.6059902 -1.5504014 0.58144486 10
2.574908 -1.5325178 0.46800491 9
2.5785975 -1.5353233 0.36326286 9
2.6176269 -1.5591806 0.26268524 11
2.5807614 -1.5378321 0.15492013 9
2.5664089 -1.5298866 0.050969806 15
1.9029057 -1.1366113 -0.58325672 48
1.7601155 -1.0517392 -0.46417275 12
1.9413028 -1.1604656 -0.43179429 3
1.9655863 -1.1754475 -0.35627756 10
2.1494882 -1.2859327 -0.3024148 16
2.1527243 -1.288379 -0.21614625 15
2.1919718 -1.3123877 -0.13144739 14
2.1772013 -1.3040606 -0.043631013 11
2.5642018 -1.5364672 0.79017711 12
2.5776868 -1.5451589 0.68445808 11
2.583725 -1.5493914 0.57763213 11
2.556838 -1.5338748 0.46566102 8
2.5604565 -1.5366535 0.36143744 10
2.5950863 -1.5580527 0.26094562 11
2.5582561 -1.5365475 0.1538769 9
2.5481973 -1.5311114 0.050710637 15
1.9030647 -1.1457381 -0.58455002 48
1.7522597 -1.0553629 -0.46304882 12
1.93724 -1.1672349 -0.43179429 3
1.9572415 -1.179752 -0.35549623 12
2.1492362 -1.2959907 -0.30302331 16
2.1311538 -1.2855941 -0.21440314 14
2.1873772 -1.320031 -0.13144739 14
2.1683564 -1.3090687 -0.043543749 12
2.5464199 -1.5379179 0.78629738 12
2.5555973 -1.5440693 0.67996246 11
2.5656989 -1.5507839 0.57477254 10
2.5345638 -1.5325689 0.46253577 9
2.5423379 -1.5378758 0.35961199 9
2.5768473 -1.559365 0.25964087 12
2.5400624 -1.5377105 0.15309447 9
2.5257323 -1.5296378 0.050365079 15
1.9031827 -1.1548797 -0.58584327 47
1.7485652 -1.061473 -0.46304882 12
1.9331539 -1.17399 -0.43179429 3
1.9531115 -1.1865768 -0.35549623 11
2.0980484 -1.2751319 -0.29633 10
2.1309092 -1.2956129 -0.21483891 13
2.1742241 -1.3224689 -0.13092576 12
2.1637738 -1.3166298 -0.043543749 13
2.5245337 -1.5367516 0.78112435 12
2.5377085 -1.5453786 0.6765908 11
2.5435033 -1.5495158 0.57095981 11
2.5165472 -1.5336967 0.46019182 9
2.5242422 -1.5389904 0.35778654 10
2.5543783 -1.5579758 0.25790125 12
2.5218921 -1.5387655 0.15231204 9
2.5075762 -1.5306309 0.050105907 15
1.8991399 -1.161516 -0.58584327 46
1.7408795 -1.0647237 -0.46192494 13
1.9250634 -1.1778324 -0.43084112 3
1.9407415 -1.1878906 -0.3539336 12
2.0303221 -1.2432084 -0.28720281 3
2.0671372 -1.2662469 -0.208738 6
2.1144805 -1.2957553 -0.12753525 5
2.1551337 -1.3211851 -0.043456491 12
2.507072 -1.5375397 0.77724457 13
2.515959 -1.5435942 0.67209518 11
2.5258012 -1.5502396 0.56810021 11
2.4988217 -1.534281 0.45784789 9
2.5022094 -1.5369626 0.35535261 10
2.5364666 -1.5586146 0.25659654 13
2.4997606 -1.5366603 0.15126881 9
2.4897113 -1.5310818 0.049846742 15
1.9076135 -1.1754084 -0.58972305 45
1.7371523 -1.070794 -0.46192494 13
1.9125845 -1.1793926 -0.42893475 3
1.9239739 -1.1868793 -0.35158968 15
2.0724273 -1.278958 -0.29389611 8
2.007606 -1.2394388 -0.20307288 7
2.0589654 -1.271643 -0.12440556 18
2.1505089 -1.3286999 -0.043456491 12
2.4893646 -1.5386635 0.77336484 13
2.4981239 -1.5446802 0.6687234 10
2.5078518 -1.5513006 0.56524068 10
2.4766529 -1.5325993 0.45472264 9
2.4841702 -1.537851 0.35352719 10
2.518306 -1.5595911 0.25529179 12
2.4816477 -1.5374876 0.15048639 9
2.4716036 -1.531862 0.04958757 15
1.903499 -1.18206 -0.58972305 36
1.733404 -1.0768512 -0.46192494 12
1.9042871 -1.1834706 -0.42798153 3
1.9114311 -1.1883729 -0.35002708 10
2.0342364 -1.2652158 -0.28902826 6
1.9948093 -1.2411764 -0.20220132 8
2.0417967 -1.2709066 -0.12362313 14
2.141614 -1.3335559 -0.043369226 12
2.4675806 -1.5371288 0.76819187 12
2.4803121 -1.5456609 0.66535175 11
2.4899259 -1.5522553 0.56238109 11
2.4587166 -1.5333949 0.45237872 8
2.4619448 -1.5360051 0.35109326 10
2.4959447 -1.5578228 0.25355214 12
2.4635594 -1.5382073 0.14970396 9
2.4535215 -1.5325351 0.049328405 15
1.8829848 -1.1784481 -0.58455002 27
1.7296344 -1.0828955 -0.46192494 13
1.8918248 -1.1848998 -0.42607516 2
1.8947163 -1.1871712 -0.34768313 13
2.0382175 -1.2775803 -0.29024521 6
1.9820246 -1.2428396 -0.20132977 9
2.0288882 -1.2727193 -0.12310151 15
2.1369457 -1.3410233 -0.043369226 13
2.449928 -1.538029 0.76431209 12
2.4625239 -1.5465357 0.66198003 11
2.4678679 -1.5504925 0.5585683 11
2.4366241 -1.5314561 0.4492535 9
2.4439638 -1.5366644 0.34926781 10
2.4778426 -1.5585696 0.25224742 12
2.4454966 -1.5388196 0.14892153 10
2.4354641 -1.5331001 0.049069233 15
nan nan nan 0
1.7258439 -1.0889264 -0.46192494 12
1.8710749 -1.1810169 -0.4222624 2
1.8863851 -1.1911412 -0.34690183 10
2.0253541 -1.2793864 -0.28902826 7
1.9734635 -1.2470899 -0.200894 9
2.0244334 -1.2797937 -0.12310151 15
2.1280265 -1.3458025 -0.043281965 13
2.4282179 -1.5362421 0.75913906 13
2.4406431 -1.5446999 0.65748441 11
2.4499996 -1.5512207 0.55570877 10
2.4187472 -1.5320244 0.44690955 9
2.4260089 -1.5372173 0.34744239 10
2.4597661 -1.5592091 0.25094271 12
2.423243 -1.5366505 0.1478783 9
2.4132121 -1.5308801 0.048723679 14
1.5567702 -0.98948157 -0.48367634 12
1.7220324 -1.0949441 -0.46192494 12
1.904214 -1.2112501 -0.43084112 4
1.8822156 -1.1977187 -0.34690183 10
2.0208757 -1.2864485 -0.28902826 9
1.9690984 -1.253971 -0.200894 10
2.0199537 -1.2868525 -0.12310151 15
2.1233158 -1.3532224 -0.043281965 13
2.4106228 -1.5369194 0.75525928 13
2.4229133 -1.5453501 0.65411264 11
2.4321568 -1.5518428 0.55284917 10
2.4008963 -1.5324867 0.44456562 9
2.4080796 -1.5376635 0.34561694 9
2.4417152 -1.5597413 0.24963796 12
2.405242 -1.5370338 0.14709587 9
2.3952172 -1.5312164 0.048464507 15
1.5370382 -0.98448956 -0.47850332 22
1.7181997 -1.1009485 -0.46192494 12
1.9330325 -1.23908 -0.43846661 3
1.873866 -1.2016155 -0.34612051 9
2.0121956 -1.290815 -0.28841975 11
1.9605172 -1.2581465 -0.20045821 10
2.0154493 -1.2938956 -0.12310151 13
2.1185791 -1.360626 -0.043281965 13
2.3930531 -1.5374926 0.75137955 13
2.4052088 -1.5458957 0.65074098 11
2.4143393 -1.5523596 0.54998964 11
2.3830717 -1.5328431 0.4422217 9
2.3860037 -1.5353179 0.34318301 9
2.423691 -1.5601668 0.24833325 11
2.3872676 -1.5373099 0.14631344 9
2.3772495 -1.5314457 0.048205342 15
1.4970704 -0.96627605 -0.46686405 14
1.7143463 -1.1069393 -0.46192494 11
1.9699249 -1.2724516 -0.44799849 8
1.8696601 -1.2081492 -0.34612051 9
1.9993418 -1.2924423 -0.28720281 13
1.9561135 -1.2649822 -0.20045821 10
2.0067284 -1.2982107 -0.12284071 13
2.1096199 -1.3652965 -0.043194704 13
2.3755088 -1.537962 0.74749976 13
2.3875299 -1.5463363 0.64736921 11
2.3965478 -1.5527707 0.54713005 10
2.365274 -1.5330937 0.43987775 9
2.3681378 -1.535537 0.34135756 8
2.4056935 -1.5604854 0.2470285 12
2.3693213 -1.5374798 0.14553103 9
2.3551168 -1.5288464 0.047859784 15
1.4936885 -0.97149593 -0.46686405 15
1.7106661 -1.1126183 -0.46192494 11
1.9656945 -1.2789772 -0.44799849 15
1.8615047 -1.2116486 -0.34533921 10
1.9908862 -1.2963574 -0.28659433 10
1.9477342 -1.2687434 -0.20002241 10
2.0024123 -1.3048582 -0.12284071 14
2.1050808 -1.372285 -0.043194704 13
2.358259 -1.5379162 0.74362004 13
2.3701479 -1.5462592 0.64399755 11
2.3790548 -1.5526618 0.54427052 11
2.3477712 -1.5328293 0.43753383 9
2.3505673 -1.5352402 0.33953214 8
2.3879962 -1.5602809 0.24572378 12
2.3516712 -1.5371326 0.1447486 10
2.3374813 -1.52844 0.047600612 14
1.4823786 -0.97115028 -0.46427754 15
1.7026969 -1.1159121 -0.46080104 11
1.9406946 -1.2723752 -0.44323257 12
1.8572639 -1.2181392 -0.34533921 10
1.9780502 -1.2978539 -0.28537738 10
1.9432936 -1.2755345 -0.20002241 10
1.9936714 -1.3090994 -0.12257989 14
2.0919209 -1.3741351 -0.043020178 12
2.3407669 -1.5381814 0.73974025 12
2.3525226 -1.5464942 0.64062583 12
2.3613174 -1.552866 0.54141092 11
2.3300288 -1.5328724 0.43518987 10
2.3327572 -1.5352509 0.33770669 10
2.370054 -1.5603899 0.24441905 13
2.3379514 -1.5398389 0.14422698 9
2.3196082 -1.5283386 0.047341447 15
1.4709179 -0.97099715 -0.46169105 16
1.6906601 -1.1164793 -0.45855322 11
1.932146 -1.2764361 -0.44227937 4
1.8530005 -1.2246147 -0.34533921 12
1.9693679 -1.3020138 -0.28476888 11
1.9346747 -1.2795622 -0.19958664 10
1.9890898 -1.3160505 -0.12257989 13
2.078774 -1.3759105 -0.042845655 6
2.3273292 -1.5410099 0.73715377 12
2.3349245 -1.5466253 0.63725412 12
2.3436079 -1.5529655 0.53855139 11
2.3123147 -1.5328106 0.43284598 9
2.3149757 -1.5351559 0.33588126 10
2.3521407 -1.5603927 0.24311431 12
2.320081 -1.5397077 0.14344457 9
2.3059294 -1.5308958 0.047168668 15
1.4634981 -0.97345072 -0.46039781 15
1.6745842 -1.1142769 -0.45518148 8
1.9235929 -1.2804532 -0.4413262 4
1.8446037 -1.228338 -0.34455788 12
1.9565501 -1.3033772 -0.28355193 12
1.9301965 -1.2863078 -0.19958664 11
1.980329 -1.3202162 -0.12231909 13
2.0739584 -1.3831584 -0.042845655 7
2.3098829 -1.5410829 0.73327404 13
2.3173544 -1.5466522 0.6338824 11
2.3259268 -1.5529603 0.5356918 11
2.2946301 -1.5326436 0.43050203 9
2.3013501 -1.5377132 0.33466429 9
2.3342562 -1.5602894 0.24180959 12
2.3063908 -1.542246 0.14292295 9
2.2881055 -1.5305969 0.046909496 15
1.452067 -0.97317553 -0.4578113 14
1.6544977 -1.1092631 -0.45068586 6
1.9191115 -1.2871598 -0.4413262 11
1.8403047 -1.2347693 -0.34455788 12
1.9478681 -1.3074332 -0.28294346 13
1.9215595 -1.290261 -0.19915086 11
1.9757087 -1.3271208 -0.12231909 14
2.2475433 -1.5102863 -0.04659792 12
2.2924643 -1.5410527 0.72939426 13
2.3038557 -1.5492942 0.63163459 11
2.3082738 -1.5528506 0.53283226 11
2.2810717 -1.5351293 0.4289394 9
2.283618 -1.5374222 0.33283883 10
2.3164012 -1.5600805 0.24050486 12
2.2885702 -1.5419172 0.14214052 9
2.2703125 -1.5301923 0.046650331 14
1.4406557 -0.9728325 -0.45522478 12
1.6304294 -1.1013955 -0.44506633 4
1.9186734 -1.296599 -0.44227937 18
1.8359833 -1.2411857 -0.34455788 11
1.9391813 -1.3114443 -0.28233495 15
1.9170439 -1.2969606 -0.19915086 11
1.966929 -1.3312105 -0.12205828 14
2.2753749 -1.5405449 -0.047296021 23
2.275074 -1.54092 0.72551447 13
2.2863333 -1.5491282 0.62826282 12
2.2906506 -1.5526367 0.52997267 11
2.263437 -1.5347675 0.42659551 9
2.2659163 -1.5370262 0.33101341 10
2.2985766 -1.5597663 0.23920015 12
2.2707801 -1.541483 0.14135811 10
2.2566857 -1.5324907 0.046477553 15
1.4292645 -0.97242159 -0.4526383 10
1.6106555 -1.0958335 -0.44057071 4
1.8819022 -1.2808609 -0.43465388 12
1.8318574 -1.2472674 -0.34455788 11
1.9266186 -1.3122799 -0.28111801 11
1.9127324 -1.3033106 -0.19915086 11
1.9625037 -1.3377258 -0.12205828 14
2.2661233 -1.5452651 -0.047208756 20
2.257982 -1.5402907 0.72163475 13
2.2691109 -1.5484629 0.62489116 12
2.2773817 -1.5546898 0.52806634 11
2.2460999 -1.5339096 0.42425156 9
2.2526114 -1.5389328 0.32979646 10
2.2851667 -1.5617589 0.23833032 12
2.2532902 -1.5405506 0.14057568 9
2.2392118 -1.5314988 0.04621838 15
1.4180636 -0.97169566 -0.45005178 7
1.6148577 -1.1069584 -0.44281852 4
1.8571798 -1.2735428 -0.42988792 13
1.8274924 -1.2536541 -0.34455788 12
1.9138421 -1.313381 -0.27990103 13
1.9081714 -1.3099793 -0.19915086 12
1.9537061 -1.3417412 -0.12179748 14
2.2318721 -1.5333498 -0.04659792 13
2.2406502 -1.5399563 0.71775496 13
2.2516475 -1.5480933 0.62151939 12
2.2598088 -1.5542853 0.52520674 11
2.232595 -1.5361418 0.42268893 9
2.2349617 -1.5383449 0.32797101 10
2.2673934 -1.5612513 0.23702559 14
2.2355626 -1.539909 0.13979325 10
2.2215025 -1.5307958 0.045959212 15
1.4146631 -0.97663975 -0.45005178 7
1.6149929 -1.1153574 -0.44394243 4
1.8527229 -1.2800179 -0.42988792 13
1.8190428 -1.2572178 -0.34377658 12
1.9051638 -1.3172311 -0.27929255 14
1.8994906 -1.3137987 -0.19871509 11
1.9490107 -1.3485527 -0.12179748 14
2.2182851 -1.5354406 -0.046423398 13
2.2193775 -1.53677 0.71258199 13
2.234215 -1.5476208 0.61814773 12
2.2422664 -1.5537772 0.52234721 12
2.2150428 -1.535485 0.42034501 9
2.2214217 -1.5404809 0.32675403 10
2.2537446 -1.5634782 0.23615576 13
2.2178676 -1.539163 0.13901082 10
2.203826 -1.5299882 0.045700047 16
1.4112456 -0.98157185 -0.45005178 8
1.6150887 -1.1237706 -0.44506633 3
1.8281013 -1.272457 -0.42512199 12
1.8146433 -1.2635598 -0.34377658 12
1.8964818 -1.3210365 -0.27868408 12
1.8948929 -1.3204212 -0.19871509 12
1.9401953 -1.3524923 -0.12153666 14
2.2006102 -1.5345958 -0.046161614 14
2.2021165 -1.5362177 0.70870227 13
2.2208087 -1.5498338 0.61589992 11
2.22878 -1.5559752 0.52044082 12
2.1975229 -1.5347245 0.41800106 9
2.203826 -1.5396987 0.32492858 10
2.2360253 -1.5627755 0.23485105 13
2.2002048 -1.538312 0.13822839 10
2.1902783 -1.5319411 0.045527268 14
1.4078104 -0.98649204 -0.45005178 8
1.6111562 -1.1294014 -0.44506633 3
1.7754239 -1.2450134 -0.41368371 11
1.8061785 -1.2670501 -0.34299526 13
1.8877965 -1.3247976 -0.27807558 12
1.8902724 -1.3270276 -0.19871509 12
1.9354625 -1.3592567 -0.12153666 14
2.1870587 -1.5365204 -0.045987088 14
2.1888375 -1.5383408 0.70611572 13
2.2034283 -1.5491699 0.6125282 12
2.2112906 -1.5552745 0.51758122 12
2.1800351 -1.5338603 0.41565713 10
2.1862631 -1.5388128 0.32310316 10
2.2183383 -1.561968 0.23354632 13
2.1825752 -1.5373565 0.13744597 10
2.1726577 -1.5309384 0.045268096 15
1.4043585 -0.99140018 -0.45005178 11
1.6151637 -1.1406395 -0.44731417 7
1.7189528 -1.214386 -0.40129229 11
1.8017447 -1.2733473 -0.34299526 12
1.8831607 -1.3313793 -0.27807558 12
1.8815619 -1.3307415 -0.19827931 12
1.9266299 -1.3631206 -0.12127586 14
2.1694398 -1.5354806 -0.045725301 15
2.171629 -1.5375988 0.70223594 13
2.18608 -1.5484039 0.60915649 12
2.1978385 -1.5573084 0.51567489 12
2.1666098 -1.535749 0.41409451 10
2.1727815 -1.5406935 0.32188621 10
2.204747 -1.563938 0.23267651 13
2.1690514 -1.5391866 0.13692436 10
2.1591473 -1.5327255 0.045095317 16
1.3969532 -0.99349707 -0.44875854 10
1.6074018 -1.1431657 -0.44619027 13
1.6949192 -1.2058526 -0.39652634 12
1.7975122 -1.279315 -0.34299526 13
1.8787353 -1.3376167 -0.27807558 13
1.8771387 -1.3369737 -0.19827931 12
1.9180324 -1.3666046 -0.12101505 15
2.1561944 -1.5368633 -0.045550779 14
2.158653 -1.5391839 0.69964945 13
2.1730006 -1.5499864 0.60690868 11
2.180676 -1.5560355 0.5128153 11
2.1494465 -1.5343176 0.41175058 10
2.1555438 -1.5392381 0.32006076 10
2.1873891 -1.5625547 0.23137176 13
2.1517477 -1.5376617 0.13614193 11
2.1418524 -1.531155 0.044836152 15
1.393651 -0.99812412 -0.44875854 11
1.5994411 -1.1459321 -0.44506633 17
1.6867104 -1.2089024 -0.39557317 12
1.7930356 -1.2855817 -0.34299526 11
1.8700219 -1.3412741 -0.27746713 14
1.8684134 -1.3406144 -0.19784354 12
1.9132504 -1.3732915 -0.12101505 14
2.138634 -1.535633 -0.045288995 14
2.1454215 -1.541074 0.69706297 13
2.1557074 -1.5490329 0.60353696 12
2.1672602 -1.5579081 0.5109089 12
2.1360586 -1.5360446 0.41018796 9
2.1380718 -1.5380586 0.31823531 9
2.1738358 -1.5643616 0.23050195 12
2.1382625 -1.5393287 0.13562031 10
2.1283808 -1.532779 0.044663373 16
1.3901585 -1.0029827 -0.44875854 8
1.5914807 -1.148657 -0.44394243 18
1.6785007 -1.2119094 -0.39461994 12
1.7845335 -1.2889411 -0.34221399 11
1.8653286 -1.3477936 -0.27746713 14
1.8637224 -1.3471282 -0.19784354 12
1.9043989 -1.3770359 -0.12075425 15
2.1251597 -1.5372287 -0.045114469 14
2.1282904 -1.5400594 0.69318318 14
2.1384475 -1.5479777 0.60016519 12
2.1498826 -1.5568273 0.50804937 12
2.1186852 -1.5347998 0.40784404 10
2.1206341 -1.5367758 0.31640986 9
2.1562631 -1.5631696 0.22919723 13
2.12075 -1.5379893 0.1348379 10
2.1108778 -1.5313921 0.044404201 15
1.382742 -1.0049896 -0.4474653 7
1.583521 -1.15134 -0.44281852 17
1.6702908 -1.214874 -0.39366677 13
1.7800235 -1.2951624 -0.34221399 11
1.8566 -1.3513759 -0.27685863 14
1.8549819 -1.3506933 -0.19740775 12
1.8995805 -1.3836749 -0.12075425 15
2.1117001 -1.5387493 -0.044939946 14
2.1150956 -1.5417888 0.69059664 14
2.1251578 -1.5496917 0.59791738 12
2.1365044 -1.558537 0.50614297 12
2.1053364 -1.5363637 0.40628141 9
2.10724 -1.5383166 0.31519291 10
2.138726 -1.561874 0.22789249 13
2.1073046 -1.5394914 0.13431628 10
2.0934105 -1.5299017 0.044145033 15
1.3792255 -1.0098102 -0.4474653 7
1.583423 -1.1597395 -0.44394243 17
1.6660398 -1.220697 -0.39366677 13
1.7715085 -1.2984483 -0.34143266 10
1.8518715 -1.3578484 -0.27685863 15
1.8502558 -1.3571602 -0.19740775 12
1.8907133 -1.3873434 -0.12049343 15
2.0942256 -1.5372366 -0.044678159 14
2.098022 -1.5405867 0.68671691 13
2.1079559 -1.5484475 0.59454572 12
2.1191854 -1.557266 0.50328338 12
2.0880234 -1.534928 0.40393749 10
2.0898631 -1.5368425 0.31336749 10
2.125236 -1.5634265 0.22702268 13
2.089853 -1.5379592 0.13353385 10
2.0800054 -1.5312722 0.043972254 15
1.367918 -1.0088848 -0.44487876 6
1.5832855 -1.168152 -0.44506633 12
1.669667 -1.2323346 -0.39557317 13
1.7669653 -1.3046242 -0.34143266 10
1.8431287 -1.3613559 -0.27625015 12
1.8415012 -1.3606508 -0.19697198 13
1.8858591 -1.3939348 -0.12049343 15
2.0808074 -1.5385927 -0.044503633 14
2.0848656 -1.5421562 0.68413043 13
2.0907884 -1.547102 0.59117401 13
2.1058464 -1.5588132 0.50137705 12
2.0747149 -1.5363292 0.40237486 10
2.07651 -1.5382198 0.31215051 11
2.1117618 -1.5649042 0.22615285 12
2.0764494 -1.5392978 0.13301224 10
2.0626009 -1.5295898 0.043713085 15
1.379896 -1.025175 -0.45005178 6
1.5870191 -1.179484 -0.44731417 8
1.6771718 -1.2469409 -0.3984327 14
1.758438 -1.3078369 -0.34065136 13
1.8383654 -1.3677814 -0.27625015 14
1.8367405 -1.3670706 -0.19697198 13
1.8769767 -1.3975272 -0.12023263 16
2.0633962 -1.536888 -0.044241846 14
2.0678506 -1.5407671 0.68025064 14
2.077563 -1.5485677 0.5889262 12
2.088588 -1.5573527 0.49851748 12
2.0574634 -1.5347035 0.40003094 10
2.0631726 -1.5395226 0.31093353 11
2.094312 -1.5633276 0.22484814 13
2.0590611 -1.5375738 0.1322298 9
2.0492389 -1.5307965 0.043540306 15
1.3917768 -1.0415609 -0.45522478 12
1.5984929 -1.1966959 -0.45180979 5
1.672809 -1.2527877 -0.3984327 11
1.753862 -1.3139672 -0.34065136 13
1.8335798 -1.3741901 -0.27625015 14
1.8319573 -1.3734735 -0.19697198 13
1.8720871 -1.4040706 -0.12023263 17
2.0500212 -1.5380807 -0.044067323 14
2.0508714 -1.5392781 0.67637092 13
2.0604565 -1.5470345 0.58555448 12
2.0752897 -1.5587381 0.49661112 12
2.0441973 -1.535943 0.39846832 10
2.0498521 -1.5407515 0.30971658 12
2.0808797 -1.5646415 0.22397833 14
2.0457006 -1.5387489 0.13170819 9
2.031899 -1.5289228 0.043281138 15
1.3997029 -1.0551349 -0.45910454 12
1.6020858 -1.2081352 -0.4540576 9
1.6958547 -1.2793109 -0.40510502 10
1.7453225 -1.3171061 -0.33987004 14
1.8248107 -1.377592 -0.27564168 15
1.8231769 -1.376858 -0.1965362 14
1.8631904 -1.4075869 -0.11997182 16
2.0326748 -1.5361848 -0.04380554 14
2.0377805 -1.5406022 0.67378443 13
2.047272 -1.5483397 0.58330667 13
2.0620077 -1.5600501 0.49470475 13
2.0270097 -1.534128 0.39612436 10
2.0365479 -1.5419061 0.3084996 11
2.0674639 -1.5658808 0.2231085 14
2.0323572 -1.5398495 0.13118657 10
2.0185814 -1.5299666 0.043108359 16
1.3998579 -1.0629351 -0.46039781 12
1.621137 -1.231402 -0.46080104 9
1.7773558 -1.3505539 -0.42607516 12
1.7367826 -1.3202019 -0.33908871 7
1.8199911 -1.3839533 -0.27564168 15
1.8183597 -1.3832139 -0.1965362 14
1.8542923 -1.4110583 -0.119711 17
2.0193443 -1.5372145 -0.043631013 14
2.0208626 -1.5389273 0.66990465 13
2.0341034 -1.5495716 0.58105886 12
2.0448382 -1.5583131 0.49184516 12
2.0137875 -1.5352061 0.39456174 10
2.0232608 -1.5429865 0.30728266 12
2.054065 -1.5670456 0.22223866 14
2.019031 -1.5408759 0.13066494 10
2.0052812 -1.530936 0.04293558 16
1.396139 -1.0678151 -0.46039781 12
1.6168288 -1.2370534 -0.46080104 10
1.75704 -1.3448169 -0.4222624 7
1.7282424 -1.323254 -0.33830741 8
1.8151491 -1.3902979 -0.27564168 16
1.8135202 -1.3895526 -0.1965362 13
1.8493553 -1.4175223 -0.119711 17
2.0020645 -1.5351281 -0.043369226 14
2.0078139 -1.5400931 0.66731817 13
2.0209517 -1.5507309 0.57881105 12
2.0315988 -1.5594641 0.4899388 12
2.0005822 -1.5362108 0.39299911 11
2.0099912 -1.5439931 0.30606568 11
2.0406833 -1.568136 0.22136885 14
2.0057228 -1.541828 0.13014333 10
1.9880363 -1.5287842 0.042676415 16
1.3924031 -1.0726819 -0.46039781 12
1.6125008 -1.2426898 -0.46080104 12
1.7251246 -1.3299644 -0.41559011 3
1.7197022 -1.3262627 -0.33752608 7
1.8063556 -1.3935941 -0.27503321 16
1.8047158 -1.3928313 -0.19610043 14
1.8404437 -1.4209177 -0.1194502 17
1.9887806 -1.5359957 -0.043194704 15
1.9947817 -1.5411863 0.66473162 13
2.0039618 -1.5488375 0.57543933 12
2.0183768 -1.5605416 0.4880324 12
1.9913015 -1.5401633 0.39221784 10
1.996739 -1.5449259 0.30484873 12
2.027319 -1.5691521 0.22049902 14
1.9924326 -1.5427063 0.12962171 11
1.9747831 -1.5295918 0.042503636 16
1.3886502 -1.0775359 -0.46039781 12
1.6081532 -1.2483108 -0.46080104 13
1.8173901 -1.4112372 -0.43941984 8
1.7111622 -1.3292279 -0.33674479 7
1.8014802 -1.3998909 -0.27503321 17
1.7998428 -1.3991225 -0.19610043 14
1.8354726 -1.4273336 -0.1194502 18
1.975515 -1.5367893 -0.043020178 15
1.9779546 -1.5392413 0.66085184 13
1.9908541 -1.5498376 0.57319152 13
2.0051723 -1.5615461 0.48612604 13
1.9781214 -1.5410348 0.39065522 10
1.9835051 -1.5457853 0.30363178 12
2.0100443 -1.5670316 0.21919431 15
1.9791605 -1.5435102 0.1291001 11
1.9615483 -1.5303254 0.042330857 15
1.3848805 -1.0823766 -0.46039781 12
1.6076243 -1.2569177 -0.46192494 12
1.831784 -1.4326916 -0.44418573 11
1.7026222 -1.3321495 -0.33596346 7
1.7926745 -1.4031118 -0.2744247 17
1.7910261 -1.4023257 -0.19566463 15
1.8265481 -1.430653 -0.11918938 18
1.9622684 -1.5375092 -0.042845655 15
1.9649669 -1.5401772 0.65826535 13
1.977764 -1.550765 0.57094371 13
1.9919852 -1.5624774 0.48421967 13
1.9649594 -1.5418329 0.38909259 10
1.9702896 -1.5465709 0.3024148 12
1.9967268 -1.5678861 0.2183245 14
1.9659073 -1.5442406 0.12857848 12
1.9483331 -1.5309856 0.042158078 15
1.381094 -1.0872041 -0.46039781 12
1.6032269 -1.2625216 -0.46192494 9
1.8190604 -1.4330024 -0.44227937 21
1.6979618 -1.3380847 -0.33596346 8
1.7877657 -1.4093609 -0.2744247 14
1.7861202 -1.4085691 -0.19566463 15
1.8215431 -1.4370201 -0.11918938 15
1.9490407 -1.5381552 -0.042671129 14
1.951997 -1.5410415 0.65567887 13
1.9608686 -1.5486007 0.567572 13
1.9788164 -1.5633358 0.48231328 13
1.9479415 -1.5394959 0.38674864 11
1.9570928 -1.5472833 0.30119786 12
1.983428 -1.5686667 0.21745467 14
1.9487575 -1.5417993 0.12779607 11
1.9351368 -1.5315721 0.041985296 15
1.3772904 -1.0920184 -0.46039781 12
1.5873588 -1.2590274 -0.45855322 5
1.7025422 -1.3508704 -0.41463691 26
1.6894127 -1.3409334 -0.33518216 6
1.7789485 -1.4125066 -0.27381623 14
1.7811924 -1.4147953 -0.19566463 16
1.8165159 -1.4433696 -0.11918938 16
1.9358327 -1.5387279 -0.042496607 15
1.9390452 -1.5418338 0.65309232 13
1.9478251 -1.5493701 0.56532419 13
1.9656657 -1.5641214 0.48040691 13
1.9348282 -1.5401347 0.38518602 11
1.940033 -1.5448312 0.29937243 12
1.9701482 -1.5693735 0.21658486 15
1.935554 -1.5423689 0.12727445 11
1.9219604 -1.5320852 0.041812517 15
1.3734702 -1.0968193 -0.46039781 11
nan nan nan 0
1.7364018 -1.387144 -0.4241688 9
1.6849566 -1.3465284 -0.33518216 6
1.7742547 -1.4183981 -0.27381623 14
1.772601 -1.4175832 -0.19522887 17
1.8078204 -1.4462663 -0.11892858 15
1.922913 -1.5388914 -0.042322084 15
1.9226104 -1.5391999 0.64921266 13
1.9350706 -1.5497296 0.56307638 13
1.9489763 -1.5614244 0.47754732 13
1.9220027 -1.5403655 0.38362342 11
1.9271551 -1.5450472 0.29815546 12
1.9571617 -1.5696653 0.21571504 15
1.922639 -1.5425293 0.12675282 11
1.9090714 -1.5321918 0.041639738 16
1.3698255 -1.101368 -0.46039781 11
1.525602 -1.2270538 -0.44281852 2
1.75067 -1.4085813 -0.42893475 10
1.6763989 -1.3493052 -0.33440083 6
1.7692928 -1.4245827 -0.27381623 15
1.7676418 -1.4237622 -0.19522887 17
1.802761 -1.4525681 -0.11892858 16
1.909745 -1.5393196 -0.042147558 15
1.9097062 -1.5398384 0.64662611 14
1.9220651 -1.5503572 0.56082857 13
1.9358741 -1.5620537 0.47564095 13
1.9050857 -1.5377594 0.3812795 11
1.9101666 -1.5424113 0.29633 12
1.9400461 -1.5670979 0.21441031 14
1.9094754 -1.5429548 0.12623121 12
1.8959358 -1.5325611 0.041466959 16
1.3659726 -1.1061428 -0.46039781 12
nan nan nan 0
1.7686228 -1.4332249 -0.43465388 11
1.6601697 -1.3458188 -0.33205694 3
1.7643092 -1.43075 -0.27381623 15
1.7626613 -1.4299237 -0.19522887 17
1.7976797 -1.4588518 -0.11892858 17
1.8965976 -1.5396749 -0.041973036 15
1.8968209 -1.5404055 0.64403963 13
1.9090787 -1.5509131 0.55858076 14
1.9189829 -1.559515 0.47278142 13
1.892042 -1.5381693 0.37971684 11
1.8970704 -1.5428071 0.29511306 12
1.9268363 -1.5675733 0.21354048 15
1.8963324 -1.5433069 0.12570959 11
1.882821 -1.5328572 0.04129418 15
1.3583603 -1.1078516 -0.45910454 12
nan nan nan 0
1.7560039 -1.4331828 -0.43274748 9
1.7396225 -1.4203188 -0.34924576 18
1.7554605 -1.4337605 -0.27320775 15
1.7538019 -1.4329163 -0.19479308 17
1.7925763 -1.4651181 -0.11892858 16
1.883471 -1.5399569 -0.04179851 15
1.8839554 -1.5409017 0.64145315 13
1.8961118 -1.5513971 0.55633295 14
1.9059309 -1.5599864 0.47087502 13
1.8790191 -1.5385071 0.37815422 12
1.8839948 -1.5431304 0.29389611 12
1.9136469 -1.5679758 0.21267067 15
1.8832103 -1.5435866 0.12518798 11
1.8697269 -1.5330805 0.041121401 16
1.3544849 -1.1125864 -0.45910454 13
nan nan nan 0
1.7246957 -1.4171852 -0.42607516 12
1.773054 -1.4574399 -0.35705885 33
1.7468631 -1.4364221 -0.27259928 15
1.7490406 -1.4387242 -0.19479308 17
1.787708 -1.4710544 -0.11892858 14
1.8706344 -1.53984 -0.041623987 15
1.8713782 -1.5410001 0.6388666 14
1.8834361 -1.5514809 0.55408514 13
1.8931714 -1.5600553 0.46896866 14
1.8662856 -1.5384471 0.37659159 11
1.8712094 -1.5430546 0.29267913 12
1.9007518 -1.5679736 0.21180084 15
1.8703787 -1.5434668 0.12466636 12
1.856922 -1.532907 0.040948622 16
1.350788 -1.117072 -0.45910454 12
nan nan nan 0
1.7046129 -1.4106797 -0.4222624 39
1.7983892 -1.4888146 -0.36330935 35
1.7265495 -1.4298493 -0.27016535 8
1.7363365 -1.4384654 -0.19392152 13
1.7556504 -1.4549828 -0.11710292 7
1.8575507 -1.5399789 -0.041449465 15
1.8585522 -1.5413566 0.63628012 14
1.8705095 -1.5518243 0.55183733 13
1.8801603 -1.560385 0.46706229 14
1.8533045 -1.5386431 0.37502897 12
1.858176 -1.5432353 0.29146218 13
1.8876045 -1.5682329 0.21093103 15
1.8572993 -1.5436032 0.12414475 13
1.8438717 -1.5329876 0.040775843 16
1.3468806 -1.1217803 -0.45910454 12
nan nan nan 0
1.6883672 -1.4071938 -0.41940287 57
1.8500779 -1.5425211 -0.37502897 39
1.8358836 -1.5312297 -0.28841975 28
1.7810241 -1.4860011 -0.19958664 11
1.8080618 -1.5090953 -0.12101505 24
1.8406514 -1.5368414 -0.041187678 15
1.8457469 -1.5416423 0.63369364 14
1.8576037 -1.5520964 0.54958951 14
1.8671702 -1.5606428 0.4651559 14
1.8403448 -1.5387671 0.37346637 12
1.8451643 -1.543344 0.29024521 12
1.8744786 -1.5684193 0.21006121 15
1.8442421 -1.5436672 0.12362313 12
1.8346764 -1.5362052 0.040689453 16
1.3429564 -1.126475 -0.45910454 12
nan nan nan 0
1.6872042 -1.4162343 -0.42035604 65
1.8484645 -1.5521456 -0.3758103 32
1.8457279 -1.550397 -0.29085368 37
1.8254006 -1.5338658 -0.20525178 16
1.8448274 -1.5507394 -0.12388394 16
1.8314495 -1.5400397 -0.041100416 15
1.832962 -1.5418578 0.63110709 15
1.8447189 -1.5522975 0.5473417 14
1.8579558 -1.5639899 0.4642027 13
1.8274074 -1.5388197 0.37190375 12
1.8359702 -1.5465782 0.28963673 12
1.8613745 -1.5685335 0.2091914 15
1.831207 -1.543659 0.12310151 13
1.8216593 -1.5361544 0.040516675 16
1.3390162 -1.1311558 -0.45910454 12
nan nan nan 0
1.6822504 -1.4221151 -0.42035604 67
1.8317221 -1.5490215 -0.37346637 12
1.8440937 -1.5600359 -0.29146218 45
1.8200353 -1.5402284 -0.20525178 16
1.839403 -1.5571697 -0.12388394 16
1.8146174 -1.5367308 -0.040838629 14
1.8201982 -1.5420027 0.62852055 15
1.8318553 -1.5524274 0.54509389 13
1.8449973 -1.5641179 0.46229634 13
1.8144915 -1.5388008 0.37034112 12
1.8229914 -1.5465561 0.28841975 12
1.8482924 -1.5685754 0.20832157 16
1.8181947 -1.5435787 0.12257989 12
1.8086649 -1.5360315 0.040343899 16
1.3350595 -1.135823 -0.45910454 12
nan nan nan 0
1.677276 -1.4279785 -0.42035604 66
1.8263038 -1.5554061 -0.37346637 10
1.8310815 -1.5600265 -0.29024521 44
1.8146478 -1.5465722 -0.20525178 15
1.8301566 -1.5603412 -0.12362313 7
1.8054386 -1.5398116 -0.040751368 5
1.8074558 -1.5420772 0.62593406 14
1.8190136 -1.5524864 0.54284608 14
1.8320607 -1.5641747 0.46038994 14
1.8015984 -1.5387105 0.3687785 12
1.8100355 -1.5464628 0.28720281 13
1.8352327 -1.5685451 0.20745176 16
1.8052052 -1.5434264 0.12205828 13
1.7956939 -1.5358368 0.04017112 16
1.3310866 -1.1404763 -0.45910454 12
1.4458376 -1.2392328 -0.4304556 2
1.6760074 -1.4370196 -0.42130923 64
1.7758803 -1.5231892 -0.36409065 2
1.8256249 -1.5664088 -0.29024521 12
1.797899 -1.5431645 -0.20394443 4
1.7868154 -1.5341928 -0.12101505 5
1.754544 -1.5070161 -0.039704222 9
1.7947356 -1.5420818 0.62334752 14
1.8061939 -1.5524752 0.54059827 14
1.8191462 -1.5641602 0.45848358 14
1.7924725 -1.5417695 0.3679972 12
1.7971025 -1.5462978 0.28598583 13
1.822196 -1.5684428 0.20658194 16
1.7922391 -1.5432022 0.12153666 12
1.7827462 -1.5355703 0.039998341 17
1.3270975 -1.1451157 -0.45910454 12
1.4488794 -1.2506391 -0.43270341 2
1.674696 -1.446069 -0.4222624 32
1.733179 -1.4970961 -0.35627756 3
1.7563086 -1.5176103 -0.27990103 5
1.747282 -1.5103433 -0.19871509 11
1.7512333 -1.514293 -0.11892858 8
1.7152443 -1.4836965 -0.038918864 9
1.782037 -1.5420165 0.62076104 14
1.7933965 -1.5523932 0.53835046 13
1.806254 -1.5640746 0.45657721 15
1.779614 -1.54155 0.3664346 12
1.7879435 -1.5493114 0.28537738 14
1.8129462 -1.5715313 0.20614702 16
1.7792965 -1.5429064 0.12101505 12
1.7698224 -1.5352321 0.039825562 16
1.3230923 -1.1497413 -0.45910454 12
1.437151 -1.2492963 -0.4304556 2
1.6733419 -1.4551268 -0.42321563 10
1.7093123 -1.4869303 -0.35237098 6
1.6761246 -1.4585743 -0.26773143 3
1.6969165 -1.4771882 -0.19348575 11
1.7195779 -1.4974427 -0.11710292 8
1.6874375 -1.4699723 -0.038395293 8
1.769361 -1.5418812 0.61817455 14
1.7806214 -1.552241 0.53610265 14
1.7933848 -1.5639181 0.45467082 15
1.7705007 -1.544506 0.36565328 13
1.775046 -1.549017 0.28416041 14
1.7999446 -1.5712987 0.2052772 16
1.7701389 -1.5458237 0.12075425 12
1.7569224 -1.5348223 0.03965278 17
1.3190708 -1.1543527 -0.45910454 13
1.4217839 -1.2446778 -0.42708388 2
1.6756374 -1.4674263 -0.42512199 6
1.7003969 -1.4896337 -0.35158968 7
1.6859524 -1.4774998 -0.27016535 9
1.6767678 -1.4699683 -0.19174264 11
1.7068322 -1.4968517 -0.11658131 9
1.678538 -1.4725567 -0.038308028 9
1.7567077 -1.5416765 0.61558807 14
1.7678698 -1.5520185 0.53385484 14
1.7805387 -1.563691 0.45276445 14
1.7576782 -1.544158 0.36409065 13
1.7621723 -1.5486511 0.28294346 13
1.786967 -1.5709945 0.20440739 16
1.7572333 -1.5453981 0.12023263 12
1.7440474 -1.5343417 0.039480001 16
1.3150334 -1.15895 -0.45910454 12
1.4249589 -1.2558283 -0.42933169 2
1.6965344 -1.4956962 -0.43179429 3
1.6954478 -1.4952642 -0.35158968 9
1.6736006 -1.4765159 -0.26894841 9
1.6644151 -1.4689288 -0.19087109 11
1.6981162 -1.4991989 -0.11632051 8
1.6661513 -1.471496 -0.038133506 9
1.7443465 -1.5410979 0.61300153 15
1.755412 -1.5514196 0.53160703 14
1.7679893 -1.5630848 0.45085809 14
1.7488486 -1.5467064 0.36330935 13
1.7495933 -1.5479094 0.28172651 13
1.7780175 -1.5736104 0.20397249 17
1.7446219 -1.544597 0.119711 13
1.7352073 -1.5368022 0.039393611 16
1.311183 -1.1633043 -0.45910454 12
1.4205666 -1.2607948 -0.42933169 2
1.7023144 -1.5113853 -0.43465388 4
1.6865256 -1.4978938 -0.35080835 11
1.6647261 -1.4790525 -0.2683399 9
1.6518313 -1.4681119 -0.18999954 11
1.6891408 -1.5017996 -0.11605969 8
1.6572694 -1.4739809 -0.038046245 9
1.7317396 -1.5407563 0.61041504 15
1.7463465 -1.5542985 0.53048313 13
1.7588562 -1.5659827 0.44990486 15
1.7360631 -1.5462323 0.36174673 13
1.7367685 -1.5474043 0.28050953 14
1.7650769 -1.5731788 0.20310266 17
1.7317656 -1.5440315 0.11918938 13
1.7223706 -1.5361947 0.039220832 17
1.3071142 -1.1678743 -0.45910454 12
1.4197894 -1.2689925 -0.4304556 2
1.7519138 -1.5663916 -0.44895169 17
1.6739244 -1.497187 -0.34924576 12
1.6521564 -1.4782362 -0.26712295 9
1.6392736 -1.467225 -0.18912795 12
1.6801684 -1.5043559 -0.11579888 9
1.644666 -1.4730858 -0.037871718 9
1.7191566 -1.5403458 0.60782856 15
1.7336541 -1.5538813 0.52823532 14
1.7460703 -1.5655594 0.44799849 15
1.7233022 -1.5456878 0.3601841 13
1.7239686 -1.5468286 0.27929255 14
1.752161 -1.5726762 0.20223285 17
1.7189348 -1.5433953 0.11866777 13
1.7132783 -1.5388567 0.039134443 17
1.3030297 -1.1724298 -0.45910454 13
1.4153512 -1.2739407 -0.4304556 2
1.713607 -1.5429386 -0.440373 12
1.6576798 -1.4931056 -0.34690183 14
1.6396124 -1.4773502 -0.26590598 9
1.6267422 -1.4662683 -0.1882564 12
1.6674904 -1.5035243 -0.11527727 9
1.6320895 -1.472121 -0.037697192 9
1.7101835 -1.543102 0.60653532 15
1.7209865 -1.5533946 0.52598751 14
1.7333089 -1.5650661 0.44609213 14
1.7105664 -1.545073 0.35862145 13
1.7111939 -1.5461823 0.27807558 14
1.7392702 -1.5721027 0.20136304 17
1.7061294 -1.5426885 0.11814615 13
1.7004812 -1.5381207 0.038961664 17
1.2953501 -1.173728 -0.4578113 13
1.4108957 -1.2788736 -0.4304556 2
1.7009387 -1.5423169 -0.43846661 14
1.6414837 -1.4889287 -0.34455788 10
1.6270946 -1.4763945 -0.26468903 10
1.617926 -1.4685901 -0.18782063 12
1.6548386 -1.5026224 -0.11475565 9
1.6232404 -1.4744476 -0.037609935 9
1.6976374 -1.5425661 0.60394883 16
1.7119483 -1.5561153 0.5248636 14
1.7205724 -1.5645028 0.44418573 15
1.6978562 -1.5443885 0.35705885 14
1.6984451 -1.5454661 0.27685863 14
1.7264048 -1.5714585 0.20049322 17
1.6933502 -1.5419109 0.11762454 13
1.6877102 -1.5373142 0.038788885 17
1.291245 -1.1782424 -0.4578113 13
1.4064231 -1.2837906 -0.4304556 2
1.6955446 -1.548245 -0.43846661 9
1.6253375 -1.4846574 -0.34221399 11
1.6146039 -1.4753698 -0.26347208 10
1.605437 -1.4675077 -0.18694907 11
1.6458985 -1.5050203 -0.11449484 9
1.6107063 -1.4733566 -0.037435409 9
1.6851161 -1.5419617 0.60136229 16
1.6993185 -1.5555027 0.52261579 14
1.7078608 -1.5638696 0.44227937 15
1.6851715 -1.5436342 0.35549623 13
1.685722 -1.5446798 0.27564168 14
1.7135651 -1.5707434 0.19962338 17
1.6842774 -1.5444378 0.11736374 14
1.6786497 -1.5398167 0.038702495 17
1.2871244 -1.1827426 -0.4578113 13
1.4055201 -1.2919893 -0.4315795 2
1.6865166 -1.5508314 -0.43751341 25
1.6128759 -1.4836352 -0.34065136 11
1.6021401 -1.4742759 -0.2622551 10
1.5966398 -1.4697293 -0.18651327 11
1.6332887 -1.5039916 -0.11397322 10
1.5981995 -1.4721957 -0.037260886 9
1.6761715 -1.5445614 0.60006905 16
1.6867141 -1.5548205 0.52036798 14
1.6951748 -1.5631671 0.440373 15
1.6761428 -1.5461586 0.35471493 14
1.6730254 -1.5438234 0.2744247 14
1.7044117 -1.5733367 0.19918849 17
1.6715395 -1.5435327 0.11684212 13
1.6659199 -1.5388826 0.038529716 17
1.2829881 -1.1872283 -0.4578113 13
1.4010017 -1.2968876 -0.4315795 2
1.6774918 -1.5533744 -0.43656024 29
1.5968181 -1.4791875 -0.33830741 11
1.589704 -1.4731131 -0.26103815 9
1.5841939 -1.4685211 -0.18564172 11
1.6243675 -1.5062888 -0.11371242 9
1.5893855 -1.4743657 -0.037173621 9
1.663689 -1.5438322 0.5974825 16
1.6777056 -1.557384 0.51924407 14
1.6825147 -1.562395 0.43846661 16
1.6634991 -1.5452778 0.3531523 13
1.6639906 -1.5462756 0.27381623 14
1.691613 -1.572494 0.19831866 18
1.6624846 -1.5459578 0.11658131 14
1.6532172 -1.5378783 0.038356937 18
1.278836 -1.1916995 -0.4578113 13
1.3964661 -1.3017701 -0.4315795 2
1.6720592 -1.5592206 -0.43656024 12
1.5880337 -1.4813836 -0.33752608 11
1.5809236 -1.4752672 -0.26042965 10
1.5754172 -1.4706433 -0.18520595 11
1.6154503 -1.5085417 -0.11345161 10
1.5805763 -1.4764922 -0.037086364 9
1.6512322 -1.543035 0.59489602 15
1.6651409 -1.5565766 0.51699626 15
1.6734654 -1.5649059 0.43751341 16
1.6508818 -1.5443274 0.35158968 14
1.6513357 -1.5452927 0.27259928 14
1.6788408 -1.5715811 0.19744885 18
1.6497887 -1.5449256 0.11605969 13
1.6405421 -1.5368042 0.038184159 17
1.2746683 -1.1961563 -0.4578113 13
1.3919135 -1.3066368 -0.4315795 2
1.6630281 -1.5616875 -0.43560702 49
1.575654 -1.4801552 -0.33596346 11
1.568531 -1.4739794 -0.2592127 9
1.5630158 -1.4693104 -0.1843344 11
1.6028997 -1.5073302 -0.11292999 10
1.5681301 -1.4751496 -0.036911838 10
1.6388013 -1.5421696 0.59230953 15
1.6526022 -1.5557005 0.51474845 15
1.660846 -1.5640079 0.43560702 16
1.6418864 -1.5466944 0.35080835 13
1.6423197 -1.5476439 0.27199078 15
1.6697202 -1.5740151 0.19701393 18
1.6371205 -1.5438236 0.11553808 13
1.631531 -1.5390908 0.038097769 17
1.2704853 -1.2005984 -0.4578113 13
1.3840319 -1.307899 -0.4304556 2
1.6542736 -1.5638219 -0.43465388 60
1.5671489 -1.4819791 -0.33518216 11
1.5600294 -1.4757624 -0.25860423 10
1.5545168 -1.4710616 -0.18389861 11
1.5942661 -1.5092045 -0.11266918 10
1.5595999 -1.476904 -0.036824573 10
1.6301718 -1.5442739 0.59101623 16
1.6403615 -1.5544698 0.51250064 15
1.6485263 -1.5627534 0.43370065 15
1.6295812 -1.5453341 0.34924576 14
1.6299775 -1.5462503 0.27077383 14
1.6572653 -1.5726858 0.1961441 18
1.6283709 -1.5458064 0.11527727 14
1.6191682 -1.5376077 0.03792499 17
1.2699964 -1.2081338 -0.45910454 13
1.3900462 -1.3227981 -0.43382731 2
1.6416947 -1.5628184 -0.43274748 66
1.5548135 -1.4806288 -0.33361953 11
1.551275 -1.4777757 -0.25799572 10
1.5421606 -1.4696064 -0.18302706 11
1.5817602 -1.50787 -0.11214756 10
1.5471991 -1.4754388 -0.03665005 10
1.6177819 -1.5432872 0.58842975 16
1.6314005 -1.5568227 0.51137674 15
1.6395109 -1.5651091 0.43274748 16
1.6206053 -1.5476022 0.34846446 13
1.6209818 -1.5485026 0.27016535 14
1.6481643 -1.5750198 0.19570921 18
1.6157465 -1.5445803 0.11475565 14
1.6065646 -1.5363399 0.037752211 17
1.2657714 -1.2125596 -0.45910454 11
1.3819027 -1.3242713 -0.43270341 2
1.6326863 -1.5651429 -0.43179429 66
1.5460711 -1.4826289 -0.33283821 11
1.5389445 -1.4763104 -0.25677878 10
1.5334276 -1.4715321 -0.18259129 11
1.5692829 -1.5064663 -0.11162595 10
1.5384337 -1.477368 -0.036562789 10
1.6089017 -1.5455788 0.58713651 15
1.6189305 -1.5557562 0.50912893 15
1.6269608 -1.5640194 0.43084112 16
1.6080742 -1.5464035 0.34690183 14
1.6084133 -1.5472701 0.26894841 15
1.6354783 -1.5738559 0.19483939 18
1.6067476 -1.546748 0.11449484 14
1.597591 -1.5384707 0.037665822 17
1.2719593 -1.2270304 -0.46298429 7
1.4228476 -1.3730683 -0.44731417 2
1.6201501 -1.5640144 -0.42988792 66
1.5337813 -1.4811555 -0.33127561 11
1.5302126 -1.4782254 -0.2561703 10
1.5211179 -1.4699531 -0.18171974 11
1.5568348 -1.504994 -0.11110433 11
1.5260799 -1.4757786 -0.036388267 10
1.5965543 -1.5444694 0.58455002 15
1.6099889 -1.5580097 0.50800502 15
1.6179649 -1.5662751 0.42988792 16
1.5991185 -1.5485716 0.34612051 14
1.599438 -1.5494219 0.2683399 15
1.6263975 -1.5760888 0.19440447 18
1.5941684 -1.5453963 0.11397322 14
1.5850333 -1.5370773 0.037493039 18
1.253811 -1.2180012 -0.4578113 5
1.445998 -1.4051899 -0.45630541 4
1.6076419 -1.5628177 -0.42798153 66
1.5250614 -1.4830574 -0.33049431 11
1.521486 -1.4800973 -0.2555618 10
1.5124079 -1.4717798 -0.18128394 11
1.547994 -1.5069363 -0.11084352 10
1.5173374 -1.4776088 -0.036301002 9
1.584234 -1.5432925 0.58196354 16
1.5975623 -1.5568198 0.50575721 15
1.6054584 -1.5650607 0.42798153 16
1.5866317 -1.5472481 0.34455788 14
1.5869147 -1.5480646 0.26712295 15
1.6137562 -1.5747986 0.19353466 18
1.5816183 -1.5439758 0.11345161 14
1.5760816 -1.5391082 0.037406653 17
1.239194 -1.2122381 -0.45393154 3
1.4689412 -1.4374894 -0.46529663 5
1.595162 -1.5615529 -0.42607516 64
1.5128182 -1.4814612 -0.32893169 11
1.5092198 -1.4784532 -0.25434485 10
1.5037036 -1.473564 -0.18084818 12
1.5355932 -1.5053397 -0.11032191 10
