# .PCD v0.7 - Point Cloud Data file format
VERSION 0.7
FIELDS x y z intensity
SIZE 4 4 4 4
TYPE F F F F
COUNT 1 1 1 1
WIDTH 1324
HEIGHT 1
VIEWPOINT 0 0 0 1 0 0 0
POINTS 1324
DATA ascii
0.52086872 -1.4341896 -0.39832169 13
0.51674056 -1.4235972 -0.34054321 8
0.52358633 -1.4432424 -0.29072243 15
0.52479869 -1.4473722 -0.23751837 16
0.52198607 -1.4403995 -0.18315265 14
0.51850504 -1.4315736 -0.12986206 15
0.54158908 -1.4961236 -0.081111379 18
0.5334636 -1.4744807 -0.026702181 17
0.49422967 -1.3667849 0.37892288 51
0.5511831 -1.5251212 0.36526912 22
0.53491044 -1.4809031 0.29834792 9
0.51606953 -1.4295228 0.23439312 9
0.50818384 -1.4084489 0.17889327 13
0.51482362 -1.4276317 0.12916808 37
0.51579732 -1.4311146 0.077460065 18
0.53140581 -1.4752287 0.026435187 20
0.51259351 -1.4269081 -0.39573517 9
0.51366401 -1.4298882 -0.34166712 7
0.52543199 -1.4634491 -0.29453519 15
0.52666819 -1.467698 -0.24064361 16
0.52390826 -1.4608085 -0.18558656 14
0.51879698 -1.4473517 -0.13116939 16
0.54504478 -1.5214143 -0.082415417 18
0.535312 -1.4950683 -0.027051229 18
0.48806721 -1.363869 0.37762964 52
0.55104488 -1.5407029 0.36864081 31
0.52999663 -1.4826689 0.29834792 9
0.50966471 -1.4265757 0.23361182 7
0.50517935 -1.4148004 0.17950176 14
0.50673825 -1.4199486 0.12829827 25
0.50769383 -1.423411 0.07693845 12
0.53322548 -1.4958187 0.026780745 21
0.50624108 -1.4240493 -0.39444193 8
0.5119319 -1.4408543 -0.3439149 8
0.52689016 -1.4837756 -0.29834792 16
0.52814895 -1.4881439 -0.24376884 16
0.52544218 -1.4813375 -0.18802048 16
0.52039891 -1.4679325 -0.1329125 16
0.54806876 -1.5468403 -0.083719462 22
0.53843385 -1.5204903 -0.027487539 21
0.48169205 -1.3610113 0.3763364 52
0.54891288 -1.5518035 0.37088862 40
0.52645397 -1.4891375 0.29930112 9
0.50632715 -1.4330025 0.23439312 19
0.5002377 -1.416555 0.17950176 14
0.49846303 -1.4123145 0.12742843 14
0.49773908 -1.4110482 0.07615602 8
0.53631192 -1.521245 0.027212691 26
0.49806336 -1.4166946 -0.39185542 7
0.51174456 -1.4564221 -0.34728661 8
0.52983916 -1.5087609 -0.30311388 17
0.53112864 -1.5132778 -0.24767539 16
0.52683914 -1.5018948 -0.19045439 16
0.52351129 -1.4932424 -0.13509139 17
0.54927045 -1.5675931 -0.0847627 31
0.53973234 -1.5412335 -0.027836585 32
0.47693828 -1.3626842 0.3763364 56
0.54671007 -1.5629077 0.37313643 67
0.52125263 -1.4909661 0.29930112 9
0.50295097 -1.4394233 0.23517443 16
0.49528995 -1.4182925 0.17950176 18
0.48696449 -1.3952346 0.12568879 11
0.49116603 -1.4080623 0.075895213 7
0.53758144 -1.5419903 0.027558248 38
0.49311513 -1.4184246 -0.39185542 7
0.50985563 -1.4674037 -0.34953442 9
0.53100991 -1.5291481 -0.30692664 24
0.53393936 -1.5384506 -0.25158197 20
0.52972525 -1.5271685 -0.19349679 20
0.52645326 -1.5185918 -0.13727029 22
0.54542994 -1.574219 -0.085023507 67
0.54252833 -1.5667284 -0.028272897 77
0.47059911 -1.3597766 0.37504312 60
0.5444364 -1.5740153 0.37538424 80
0.51604497 -1.4927765 0.29930112 10
0.49792337 -1.4411702 0.23517443 15
0.49033618 -1.420013 0.17950176 14
0.48859113 -1.41576 0.12742843 8
0.48461986 -1.4050479 0.075634405 12
0.54197109 -1.5722154 0.028076587 89
0.4865908 -1.4155698 -0.39056218 7
0.50947928 -1.4829977 -0.35290614 9
0.53363866 -1.5542037 -0.31169257 51
0.53658074 -1.563661 -0.25548851 38
0.5324412 -1.5524807 -0.19653921 32
0.53083962 -1.5486914 -0.13988498 39
0.54154968 -1.580837 -0.085284315 108
0.5435335 -1.5875314 -0.028621946 105
0.4658497 -1.361411 0.37504312 60
0.5405153 -1.580516 0.37650815 75
0.51083118 -1.4945687 0.29930112 12
0.49448618 -1.4475728 0.23595574 13
0.48537642 -1.4217159 0.17950176 15
0.49329728 -1.4457421 0.1300379 12
0.47810078 -1.4020051 0.075373597 10
0.53970528 -1.5835617 0.028249366 105
0.4816466 -1.4172596 -0.39056218 7
0.5074333 -1.4939936 -0.35515395 9
0.53767651 -1.5839438 -0.31741169 101
0.53746581 -1.5842315 -0.25861374 99
0.53498691 -1.5778298 -0.19958161 82
0.53342354 -1.5741223 -0.14206386 96
0.53602833 -1.5827177 -0.085284315 111
0.53638589 -1.5846837 -0.028534682 103
0.45954695 -1.3584536 0.37374988 57
0.53655541 -1.5870086 0.37763205 58
0.505611 -1.4963429 0.29930112 13
0.49101028 -1.4539691 0.23673706 10
0.48041075 -1.4234015 0.17950176 15
0.49780002 -1.4757738 0.13264735 10
0.47160882 -1.3989338 0.07511279 10
0.53417432 -1.5854357 0.028249366 102
0.47515842 -1.414354 -0.38926893 8
0.50376594 -1.5003742 -0.35627785 9
0.53214419 -1.585811 -0.31741169 105
0.53350282 -1.5907803 -0.25939506 104
0.52947599 -1.5796877 -0.19958161 103
0.52792555 -1.5759748 -0.14206386 102
0.53050029 -1.584579 -0.085284315 104
0.53085101 -1.5865464 -0.028534682 99
0.45480227 -1.3600495 0.37374988 63
0.53101242 -1.5888718 0.37763205 47
0.50038469 -1.4980985 0.29930112 14
0.48749578 -1.4603586 0.23751837 9
0.47543922 -1.4250697 0.17950176 15
0.50052333 -1.501129 0.13482189 13
0.46672282 -1.4005716 0.07511279 13
0.52863681 -1.5872908 0.028249366 100
0.4671742 -1.4068363 -0.38668242 8
0.49852559 -1.5021236 -0.35627785 9
0.52660549 -1.587659 -0.31741169 101
0.52639276 -1.5879451 -0.25861374 99
0.52395862 -1.5815263 -0.19958161 100
0.52398676 -1.5825362 -0.14249964 98
0.52496588 -1.5864213 -0.085284315 99
0.52373999 -1.5836434 -0.028447421 95
0.45005202 -1.3616287 0.37374988 61
0.52546304 -1.5907158 0.37763205 41
0.49515235 -1.4998361 0.29930112 11
0.48394257 -1.4667413 0.23829968 9
0.47046191 -1.4267206 0.17950176 15
0.49372137 -1.4981362 0.13438699 23
0.46026897 -1.3974496 0.074851982 17
0.52152979 -1.5843778 0.028162977 97
0.46075445 -1.4038696 -0.38538918 8
0.49479765 -1.5084841 -0.35740176 10
0.52106029 -1.5894874 -0.31741169 98
0.52084661 -1.5897729 -0.25861374 94
0.51843482 -1.5833455 -0.19958161 95
0.51691043 -1.5796219 -0.14206386 95
0.51787293 -1.5834982 -0.085023507 94
0.51820886 -1.5854621 -0.028447421 92
0.44529632 -1.3631915 0.37374988 59
0.51990718 -1.5925403 0.37763205 41
0.48839143 -1.4968892 0.29834792 9
0.48341283 -1.4825075 0.24064361 9
0.46547884 -1.428354 0.17950176 15
0.49311644 -1.5140589 0.13569172 14
0.45384267 -1.3942997 0.074591175 11
0.51444966 -1.5814346 0.028076587 96
0.45287102 -1.3962809 -0.38280267 7
0.48952901 -1.5102021 -0.35740176 10
0.51399612 -1.5866272 -0.31645852 96
0.5137729 -1.5868828 -0.25783244 90
0.51137692 -1.5804237 -0.19897313 89
0.50986075 -1.5766772 -0.14162809 90
0.51234227 -1.5852963 -0.085023507 90
0.51113486 -1.5825039 -0.02836016 92
0.44053519 -1.3647375 0.37374988 60
0.51284909 -1.5897087 0.37650815 48
0.47563258 -1.4752274 0.29358199 12
0.47823498 -1.4841858 0.24064361 11
0.46049011 -1.4299703 0.17950176 15
0.48325044 -1.5015465 0.13438699 10
0.44897294 -1.3958755 0.074591175 9
0.50892627 -1.5832207 0.028076587 95
0.44504622 -1.3886544 -0.38021615 6
0.4857406 -1.5165416 -0.35852566 10
0.50695825 -1.5837371 -0.31550533 93
0.50672573 -1.5839628 -0.25705114 90
0.50585711 -1.5821991 -0.19897313 83
0.50283796 -1.5737028 -0.1411923 87
0.50680548 -1.5870751 -0.085023507 89
0.50560778 -1.5842783 -0.02836016 90
0.43430102 -1.3616654 0.37245664 62
0.50581729 -1.5868472 0.37538424 51
0.46303099 -1.453495 0.28881606 33
0.46556029 -1.462317 0.23673706 12
0.45399103 -1.4268397 0.17889327 15
0.47045892 -1.47949 0.13221245 7
0.44409767 -1.3974341 0.074591175 8
0.50188339 -1.580223 0.027990198 95
0.44748616 -1.4132221 -0.38668242 6
0.48044395 -1.5182277 -0.35852566 9
0.49994686 -1.5808172 -0.31455213 91
0.50119358 -1.5857219 -0.25705114 85
0.49883631 -1.5792229 -0.19836466 86
0.49584216 -1.5706985 -0.14075653 89
0.50126243 -1.5888345 -0.085023507 90
0.49857119 -1.5812658 -0.028272897 91
0.42954528 -1.3631732 0.37245664 61
0.50027502 -1.588603 0.37538424 51
0.45500752 -1.4457386 0.28690967 74
0.45748943 -1.454511 0.23517443 14
0.44900766 -1.4284158 0.17889327 14
0.46081313 -1.4668671 0.13090771 7
0.44220835 -1.4085037 0.07511279 6
0.49636433 -1.5819652 0.027990198 95
0.45120183 -1.4424331 -0.39444193 11
0.47395211 -1.5151628 -0.35740176 9
0.49323741 -1.5777818 -0.31359896 90
0.49445966 -1.5826614 -0.25626981 86
0.49359664 -1.5808685 -0.19836466 86
0.4891471 -1.5675793 -0.14032075 86
0.49599096 -1.590488 -0.085023507 88
0.49183732 -1.5781376 -0.028185636 92
0.42358625 -1.3599788 0.3711634 59
0.49355629 -1.5856016 0.37426034 55
0.45458472 -1.4612999 0.28976923 63
0.44973129 -1.4465884 0.23361182 17
0.44279587 -1.4251574 0.17828478 14
0.45003793 -1.4493591 0.12916808 7
0.44641429 -1.4385755 0.076677635 5
0.48963481 -1.5788276 0.027903808 95
0.45497575 -1.4716074 -0.40220144 11
0.46866035 -1.5168079 -0.35740176 8
0.48627871 -1.5748039 -0.31264576 87
0.48893213 -1.5843778 -0.25626981 84
0.48807541 -1.5825818 -0.19836466 86
0.48367223 -1.5692772 -0.14032075 87
0.4889662 -1.5874376 -0.0847627 85
0.48632556 -1.579845 -0.028185636 89
0.41883644 -1.3614491 0.3711634 57
0.48801851 -1.5873147 0.37426034 56
0.45236424 -1.4722613 0.29167563 24
0.44467905 -1.4481494 0.23361182 17
0.43490654 -1.4172055 0.17706783 15
0.44351551 -1.4461591 0.12873317 7
0.45309564 -1.478317 0.078764103 11
0.4841207 -1.5805271 0.027903808 93
0.45688862 -1.4962833 -0.40866768 11
0.46194082 -1.5137748 -0.35627785 8
0.47934696 -1.571797 -0.31169257 43
0.48195884 -1.5813508 -0.25548851 85
0.48110217 -1.5795283 -0.19775617 82
0.47674108 -1.5661907 -0.13988498 88
0.48342201 -1.5891348 -0.0847627 87
0.47935379 -1.5767498 -0.028098373 92
0.4126775 -1.3582815 0.36987013 52
0.48105925 -1.5843467 0.37313643 56
0.451498 -1.487922 0.29453519 13
0.43818817 -1.4449668 0.23283051 15
0.42851752 -1.4139653 0.17645934 15
0.43702096 -1.4429313 0.12829827 7
0.4479326 -1.4798896 0.078764103 9
0.47715321 -1.5774223 0.027817419 93
0.45305717 -1.502493 -0.40996096 11
0.45665395 -1.515378 -0.35627785 8
0.47102669 -1.564061 -0.3097862 25
0.47643596 -1.5830234 -0.25548851 87
0.47558567 -1.5811981 -0.19775617 84
0.47127116 -1.5678455 -0.13988498 87
0.47787198 -1.5908126 -0.0847627 88
0.47384697 -1.5784134 -0.028098373 89
0.40793368 -1.3597138 0.36987013 50
0.47552595 -1.5860162 0.37313643 57
0.44911903 -1.4988923 0.29644156 11
0.43314162 -1.4464874 0.23283051 12
0.42357925 -1.4154526 0.17645934 16
0.43198153 -1.4444479 0.12829827 7
0.44133425 -1.4766601 0.078503296 9
0.47164404 -1.5790781 0.027817419 92
0.4505662 -1.5133234 -0.41254744 13
0.44997209 -1.512293 -0.35515395 8
0.46416524 -1.5609909 -0.308833 15
0.46950054 -1.5799428 -0.25470719 86
0.47006336 -1.5828485 -0.19775617 85
0.46579546 -1.5694809 -0.13988498 88
0.4708963 -1.587684 -0.084501892 86
0.46691376 -1.5752648 -0.028011112 90
0.40318495 -1.3611295 0.36987013 46
0.46860388 -1.5829947 0.37201253 63
0.44666898 -1.5098643 0.29834792 9
0.4280898 -1.4479907 0.23283051 9
0.41722965 -1.412163 0.17585087 17
0.42552626 -1.4411697 0.12786335 7
0.43476394 -1.4734026 0.078242488 11
0.46471521 -1.5759199 0.027731029 93
0.43847066 -1.4917178 -0.4060812 14
0.44606358 -1.5185291 -0.35627785 8
0.45733106 -1.5578923 -0.30787984 12
0.46398264 -1.5815721 -0.25470719 84
0.46313915 -1.5797174 -0.1971477 83
0.45891359 -1.5663171 -0.13944918 87
0.4653514 -1.589318 -0.084501892 88
0.46141222 -1.576885 -0.028011112 89
0.39707565 -1.3578928 0.36857688 46
0.46307537 -1.5846208 0.37201253 65
0.44414774 -1.5208372 0.30025432 10
0.42303279 -1.4494761 0.23283051 8
0.41229773 -1.4136109 0.17585087 18
0.41909924 -1.4378643 0.12742843 7
0.42682531 -1.4653232 0.077720873 12
0.45921135 -1.5775324 0.027731029 94
0.43595272 -1.5025165 -0.40866768 15
0.4407602 -1.5200769 -0.35627785 8
0.45052415 -1.5547647 -0.30692664 14
0.45845905 -1.5831821 -0.25470719 84
0.45762202 -1.5813243 -0.1971477 84
0.45344326 -1.5679095 -0.13944918 88
0.45980081 -1.5909327 -0.084501892 86
0.45590505 -1.578486 -0.028011112 89
0.3923333 -1.3592706 0.36857688 43
0.45619091 -1.5815464 0.37088862 65
0.44155532 -1.5318109 0.30216068 12
0.41660351 -1.4461982 0.2320492 10
0.40736079 -1.4150416 0.17585087 14
0.41407758 -1.4393184 0.12742843 8
0.4189485 -1.4572067 0.077199258 12
0.45370197 -1.5791258 0.027731029 93
0.42272726 -1.4761697 -0.4009082 11
0.43679193 -1.5262902 -0.35740176 9
0.4437446 -1.5516088 -0.30597344 15
0.45157287 -1.5800244 -0.25392589 82
0.45073643 -1.5781401 -0.19653921 84
0.44796753 -1.5694827 -0.13944918 88
0.45287502 -1.5877264 -0.084241085 88
0.45039231 -1.5800678 -0.028011112 90
0.38626298 -1.3559867 0.36728364 43
0.45066753 -1.5831293 0.37088862 64
0.43889162 -1.5427847 0.30406705 12
0.41020232 -1.4428933 0.23126788 9
0.40106261 -1.4116809 0.17524238 12
0.40905091 -1.4407551 0.12742843 8
0.4111335 -1.4490529 0.076677635 14
0.44682327 -1.5758901 0.027644638 93
0.41363156 -1.4636929 -0.39702845 11
0.42775339 -1.513665 -0.35403004 8
0.43859687 -1.5530719 -0.30597344 16
0.44633082 -1.581513 -0.25392589 84
0.44550064 -1.5796261 -0.19653921 83
0.44140929 -1.5661654 -0.13901341 88
0.44760746 -1.5892195 -0.084241085 88
0.44379559 -1.5767403 -0.027923848 89
0.38176423 -1.3572601 0.36728364 44
0.44409677 -1.5799246 0.36976472 64
0.43642789 -1.5536826 0.30597344 13
0.40408057 -1.439491 0.23048657 9
0.39637905 -1.4130031 0.17524238 9
0.40427095 -1.4421036 0.12742843 8
0.40363207 -1.4407922 0.07615602 17
0.44159496 -1.5773631 0.027644638 93
0.40228534 -1.4417956 -0.39056218 9
0.41854143 -1.5010698 -0.35065833 8
0.43317297 -1.5545934 -0.30597344 17
0.44080758 -1.5830615 -0.25392589 88
0.43998399 -1.5811716 -0.19653921 83
0.43593961 -1.5676967 -0.13901341 87
0.44205731 -1.5907722 -0.084241085 89
0.43828908 -1.5782799 -0.027923848 90
0.37702417 -1.3585845 0.36728364 40
0.43857914 -1.5814652 0.36976472 68
0.43362361 -1.5646569 0.30787984 14
0.39641705 -1.4313736 0.22892395 11
0.39012063 -1.4095951 0.17463391 8
0.39923456 -1.4435059 0.12742843 8
0.39727017 -1.4373796 0.075895213 17
0.43608627 -1.578895 0.027644638 95
0.38827759 -1.4105946 -0.38150942 8
0.40942273 -1.4884288 -0.34728661 7
0.42774376 -1.5560958 -0.30597344 20
0.43527898 -1.5845904 -0.25392589 87
0.43314829 -1.5779121 -0.19593073 81
0.42914701 -1.5644054 -0.13857763 88
0.43518165 -1.5874901 -0.08398027 87
0.43145633 -1.5749785 -0.027836585 88
0.37227955 -1.3598922 0.36728364 41
0.43305612 -1.5829865 0.36976472 65
0.42815933 -1.5661609 0.30787984 19
0.3992272 -1.4613329 0.23361182 12
0.38389078 -1.4061607 0.17402543 13
0.39550439 -1.4496962 0.12786335 12
0.39356369 -1.4435749 0.07615602 17
0.42925811 -1.5755839 0.027558248 95
0.37575817 -1.3839746 -0.37374988 13
0.39912155 -1.4710408 -0.34279102 7
0.42230934 -1.5575795 -0.30597344 23
0.42974508 -1.5861002 -0.25392589 86
0.4276377 -1.5794145 -0.19593073 82
0.42368358 -1.5658939 -0.13857763 86
0.42963764 -1.5889994 -0.08398027 90
0.42595601 -1.5764749 -0.027836585 89
0.36753038 -1.3611834 0.36728364 35
0.42752782 -1.5844886 0.36976472 63
0.42141199 -1.5629066 0.30692664 24
0.40183291 -1.4913285 0.23829968 14
0.37898001 -1.4074922 0.17402543 24
0.3904416 -1.4510679 0.12786335 15
0.3911154 -1.4545838 0.076677635 16
0.42375568 -1.5770729 0.027558248 93
0.36218023 -1.3526193 -0.36469713 10
0.39524361 -1.4771315 -0.3439149 8
0.41686982 -1.5590441 -0.30597344 23
0.42420596 -1.5875907 -0.25392589 84
0.42212191 -1.5808975 -0.19593073 84
0.41821501 -1.5673634 -0.13857763 89
0.42408839 -1.5904894 -0.08398027 88
0.42045048 -1.5779521 -0.027836585 90
0.3627767 -1.3624581 0.36728364 33
0.42074156 -1.5812631 0.36864081 58
0.41595381 -1.5643682 0.30692664 26
0.40423396 -1.5213599 0.24298753 14
0.37406462 -1.4088066 0.17402543 31
0.38665152 -1.4572365 0.12829827 17
0.38987464 -1.4704194 0.077460065 15
0.41824806 -1.5785425 0.027558248 95
0.36238828 -1.3725547 -0.36987013 12
0.39132798 -1.4832131 -0.3450388 7
0.4114252 -1.5604899 -0.30597344 46
0.41740343 -1.5842862 -0.25314459 85
0.41533747 -1.5775621 -0.19532226 81
0.41147402 -1.5639964 -0.13814184 87
0.41853398 -1.5919602 -0.08398027 88
0.41366959 -1.5745751 -0.027749324 91
0.35679221 -1.3590447 0.36599037 33
0.41521934 -1.5827221 0.36864081 59
0.40924597 -1.5610628 0.30597344 20
0.4076817 -1.5562031 0.2484567 22
0.36914474 -1.4101036 0.17402543 31
0.38156244 -1.4585773 0.12829827 19
0.38852811 -1.4862641 0.078242488 12
0.41147184 -1.5751559 0.027471859 93
0.36124492 -1.3878335 -0.37374988 13
0.38737464 -1.489285 -0.34616271 7
0.40721032 -1.566667 -0.30692664 76
0.41187072 -1.5857337 -0.25314459 86
0.40982819 -1.5790023 -0.19532226 83
0.40601215 -1.5654233 -0.13814184 86
0.41297445 -1.5934113 -0.08398027 88
0.40817076 -1.5760095 -0.027749324 90
0.35204613 -1.3602818 0.36599037 30
0.40969208 -1.5841618 0.36864081 59
0.40379435 -1.5624818 0.30597344 18
0.40595165 -1.5719619 0.25080064 44
0.36422026 -1.4113835 0.17402543 29
0.37646872 -1.4599004 0.12829827 23
0.38707566 -1.5021169 0.079024911 9
0.40597105 -1.5765826 0.027471859 95
0.36239988 -1.4124777 -0.38021615 10
0.38096374 -1.4859089 -0.3450388 7
0.40173915 -1.5680788 -0.30692664 84
0.40633297 -1.5871617 -0.25314459 84
0.40431395 -1.5804232 -0.19532226 82
0.40054533 -1.5668309 -0.13814184 88
0.40617403 -1.5900054 -0.083719462 88
0.40266699 -1.5774248 -0.027749324 88
0.34610191 -1.3568224 0.36469713 29
0.40415984 -1.5855823 0.36864081 58
0.39712626 -1.5591252 0.30502024 17
0.40411645 -1.5877274 0.25314459 107
0.3592914 -1.4126464 0.17402543 25
0.37137043 -1.4612056 0.12829827 18
0.38060084 -1.4986193 0.078764103 8
0.40046525 -1.5779899 0.027471859 94
0.36220315 -1.4324641 -0.38538918 8
0.37219411 -1.4730589 -0.34166712 6
0.39746463 -1.5742307 -0.30787984 90
0.39958215 -1.5837817 -0.25236326 86
0.39758155 -1.5770125 -0.19471376 83
0.39507362 -1.5682197 -0.13814184 87
0.40062138 -1.5914135 -0.083719462 88
0.39715827 -1.5788207 -0.027749324 89
0.34136358 -1.3580223 0.36469713 29
0.39862266 -1.5869832 0.36864081 53
0.39048657 -1.5557412 0.30406705 17
0.39737037 -1.5843382 0.25236326 118
0.3543582 -1.4138919 0.17402543 23
0.36747769 -1.4673249 0.12873317 17
0.37415516 -1.4950949 0.078503296 7
0.39495462 -1.5793782 0.027471859 93
0.36187121 -1.452466 -0.39056218 8
0.36234191 -1.4554381 -0.33717149 6
0.39196712 -1.5756084 -0.30787984 92
0.39405125 -1.5851669 -0.25236326 84
0.39207429 -1.5783908 -0.19471376 83
0.38959712 -1.569589 -0.13814184 89
0.39506391 -1.5928023 -0.083719462 88
0.39164472 -1.5801973 -0.027749324 90
0.33662114 -1.3592055 0.36469713 28
0.39308062 -1.5883651 0.36864081 56
0.38269708 -1.5475653 0.30216068 16
0.39183757 -1.5857155 0.25236326 103
0.34942064 -1.4151202 0.17402543 23
0.3623535 -1.4685986 0.12873317 17
0.36773875 -1.4915438 0.078242488 6
0.38824329 -1.5758934 0.02738547 92
0.36255527 -1.4771736 -0.39702845 8
0.35725924 -1.4566941 -0.33717149 6
0.38646483 -1.576967 -0.30787984 92
0.3873409 -1.5817358 -0.25158197 85
0.38656232 -1.5797498 -0.19471376 83
0.38293281 -1.566101 -0.13770607 88
0.38950154 -1.5941716 -0.083719462 88
0.38612646 -1.5815549 -0.027749324 88
0.33187455 -1.3603723 0.36469713 27
0.38637996 -1.5849941 0.36751691 58
0.37496945 -1.5393541 0.30025432 14
0.3863 -1.5870737 0.25236326 34
0.34447882 -1.4163313 0.17402543 21
0.35722497 -1.4698545 0.12873317 16
0.36253005 -1.4928185 0.078242488 12
0.38274002 -1.577239 0.02738547 95
0.36307117 -1.5019033 -0.40349469 8
0.35789213 -1.4816114 -0.34279102 7
0.38095787 -1.5783064 -0.30787984 92
0.38181728 -1.5830784 -0.25158197 87
0.37988281 -1.5762646 -0.19410528 82
0.37746376 -1.5674282 -0.13770607 88
0.3839345 -1.5955213 -0.083719462 88
0.37943467 -1.5780324 -0.027662061 89
0.32712397 -1.3615224 0.36469713 28
0.38084492 -1.5863333 0.36751691 55
0.36730385 -1.5311079 0.29834792 13
0.38075772 -1.5884124 0.25236326 27
0.33953279 -1.4175252 0.17402543 19
0.35209206 -1.4710925 0.12873317 16
0.35731694 -1.4940748 0.078242488 13
0.3772321 -1.5785654 0.02738547 93
0.36230031 -1.5219556 -0.40866768 9
0.35722789 -1.5018109 -0.34728661 8
0.37431124 -1.5748514 -0.30692664 91
0.37628898 -1.5844015 -0.25158197 87
0.37437829 -1.5775812 -0.19410528 83
0.37199011 -1.5687363 -0.13770607 86
0.37836275 -1.5968519 -0.083719462 88
0.37392402 -1.5793473 -0.027662061 89
0.32236937 -1.362656 0.36469713 25
0.37418446 -1.5829115 0.36639303 61
0.35970041 -1.5228269 0.29644156 13
0.37521079 -1.5897318 0.25236326 27
0.33458263 -1.4187018 0.17402543 19
0.34581232 -1.4674644 0.12829827 16
0.35324392 -1.5001732 0.078503296 14
0.3717196 -1.5798725 0.02738547 94
0.36249587 -1.5467232 -0.41513398 11
0.35753778 -1.5267671 -0.35290614 12
0.3688117 -1.5761483 -0.30692664 91
0.37075609 -1.5857053 -0.25158197 87
0.36886925 -1.5788784 -0.19410528 83
0.3653796 -1.5651745 -0.13727029 85
0.3716521 -1.5933002 -0.083458655 87
0.3684088 -1.5806428 -0.027662061 89
0.31761083 -1.363773 0.36469713 25
0.36755249 -1.5794628 0.36526912 62
0.35215929 -1.5145118 0.29453519 14
0.36965933 -1.5910319 0.25236326 29
0.32962841 -1.419861 0.17402543 17
0.34068778 -1.4686625 0.12829827 17
0.35026011 -1.5111256 0.079024911 14
0.36620253 -1.5811604 0.02738547 94
0.36143726 -1.5668042 -0.42030698 13
0.35548913 -1.5422486 -0.35627785 20
0.36330765 -1.5774261 -0.30692664 92
0.3652187 -1.5869899 -0.25158197 85
0.36224353 -1.5753196 -0.19349679 83
0.35991386 -1.5664405 -0.13727029 88
0.36608818 -1.5945877 -0.083458655 88
0.36177132 -1.5770466 -0.0275748 90
0.31284845 -1.3648734 0.36469713 22
0.36203691 -1.5807362 0.36526912 65
0.34468064 -1.5061626 0.29262879 13
0.36410335 -1.5923126 0.25236326 31
0.32467014 -1.4210029 0.17402543 18
0.33445048 -1.4649866 0.12786335 17
0.34831461 -1.5269433 0.079807341 23
0.36068103 -1.5824291 0.02738547 92
0.35810432 -1.5774764 -0.42289349 12
0.35225901 -1.5529828 -0.35852566 33
0.35671428 -1.5738977 -0.30597344 89
0.35967684 -1.5882549 -0.25158197 84
0.35674241 -1.5765746 -0.19349679 83
0.35444379 -1.5676873 -0.13727029 87
0.3605198 -1.5958558 -0.083458655 86
0.35626414 -1.5782998 -0.0275748 92
0.30808225 -1.3659571 0.36469713 22
0.3554458 -1.5772375 0.36414522 66
0.33834282 -1.502568 0.29167563 12
0.35745886 -1.5887557 0.25158197 33
0.31970796 -1.4221276 0.17402543 18
0.32933471 -1.466145 0.12786335 15
0.34298244 -1.52815 0.079807341 18
0.35406116 -1.5788003 0.02729908 92
0.35259569 -1.5787168 -0.42289349 9
0.35001937 -1.5684682 -0.36189741 37
0.35121816 -1.5751332 -0.30597344 89
0.35305664 -1.5846804 -0.25080064 84
0.35123694 -1.5778103 -0.19349679 84
0.34788793 -1.5640528 -0.13683452 89
0.35494703 -1.5971045 -0.083458655 88
0.35075271 -1.5795337 -0.0275748 89
0.3033123 -1.3670242 0.36469713 18
0.34993806 -1.5784686 0.36414522 72
0.33097276 -1.4941559 0.28976923 11
0.35191092 -1.5899938 0.25158197 33
0.31474185 -1.4232349 0.17402543 17
0.32314017 -1.462422 0.12742843 15
0.33979905 -1.5390894 0.080328956 14
0.34854794 -1.5800266 0.02729908 94
0.34708279 -1.5799378 -0.42289349 6
0.34558681 -1.5744392 -0.36302131 22
0.34466627 -1.5715551 -0.30502024 88
0.34752288 -1.5859032 -0.25080064 85
0.34572726 -1.5790267 -0.19349679 82
0.34242624 -1.5652575 -0.13683452 84
0.34936994 -1.5983338 -0.083458655 89
0.34417027 -1.5758643 -0.027487539 92
0.29956838 -1.3727934 0.36599037 17
0.34442604 -1.5796806 0.36414522 74
0.32471037 -1.4905062 0.28881606 12
0.34635866 -1.5912125 0.25158197 34
0.30977193 -1.424325 0.17402543 16
0.3180334 -1.4635412 0.12742843 15
0.32700849 -1.5061097 0.078503296 10
0.34197062 -1.5763479 0.027212691 93
0.31810927 -1.4725579 -0.39314869 4
0.3383064 -1.5660523 -0.3607735 13
0.33945292 -1.5726894 -0.30502024 83
0.34122083 -1.5822192 -0.25001931 85
0.34048909 -1.5801646 -0.19349679 82
0.33723378 -1.5663846 -0.13683452 86
0.34406772 -1.5994837 -0.083458655 88
0.33894259 -1.5769969 -0.027487539 91
0.29501438 -1.3737793 0.36599037 16
0.33918574 -1.580814 0.36414522 82
0.31873703 -1.4867755 0.28786287 12
0.34108007 -1.5923523 0.25158197 35
0.30400836 -1.4204913 0.17341694 17
0.31213677 -1.4597167 0.12699352 13
0.31679592 -1.4827709 0.077199258 8
0.33674139 -1.5774733 0.027212691 93
0.27908212 -1.3129781 -0.34917811 5
0.33384991 -1.5719893 -0.36189741 6
0.33294231 -1.5690634 -0.30406705 71
0.33569577 -1.5834007 -0.25001931 85
0.33497122 -1.5813434 -0.19349679 85
0.33176401 -1.5675522 -0.13683452 87
0.33744937 -1.5957897 -0.08319784 86
0.3334358 -1.5781705 -0.027487539 89
0.29021722 -1.3748007 0.36599037 16
0.33266011 -1.5772212 0.36302131 84
0.31253317 -1.4830762 0.28690967 12
0.33348459 -1.5838679 0.25001931 31
0.30006975 -1.4264004 0.17402543 16
0.30703956 -1.4607973 0.12699352 13
0.30751333 -1.4643213 0.07615602 8
0.33123291 -1.5786391 0.027212691 95
0.25869429 -1.2382997 -0.32848606 9
0.30645999 -1.4682213 -0.33717149 4
0.3264612 -1.5654112 -0.30311388 56
0.33016664 -1.5845629 -0.25001931 86
0.32843781 -1.5776443 -0.19288832 85
0.3252759 -1.5638242 -0.13639873 87
0.33187696 -1.5969579 -0.08319784 88
0.32792494 -1.5793247 -0.027487539 91
0.28639755 -1.3805345 0.36728364 16
0.32715258 -1.5783727 0.36302131 85
0.30635905 -1.4793519 0.2859565 11
0.32695317 -1.5801861 0.24923801 21
0.29508883 -1.4274391 0.17402543 14
0.30093101 -1.4569821 0.12655862 15
0.29735431 -1.4409349 0.074851982 10
0.32572043 -1.5797857 0.027212691 94
0.25339904 -1.234464 -0.32719281 14
0.2915448 -1.421555 -0.32593241 6
0.31902435 -1.5569243 -0.30120748 43
0.32463351 -1.5857056 -0.25001931 84
0.32292879 -1.5787814 -0.19288832 85
0.31981516 -1.5649501 -0.13639873 87
0.32630053 -1.5981066 -0.08319784 86
0.3214108 -1.5755614 -0.027400276 89
0.28157684 -1.3815258 0.36728364 16
0.32358536 -1.5890532 0.36526912 56
0.30119327 -1.4804122 0.2859565 10
0.3125816 -1.5377613 0.24220623 16
0.29010436 -1.4284605 0.17402543 19
0.29584333 -1.4580237 0.12655862 19
0.29033858 -1.4321768 0.07433036 17
0.32020399 -1.5809131 0.027212691 94
0.24431516 -1.2116681 -0.32072657 20
0.2759971 -1.3700272 -0.31356949 8
0.30971384 -1.5387814 -0.29739475 32
0.31909636 -1.5868292 -0.25001931 85
0.31741583 -1.5798988 -0.19288832 83
0.31435052 -1.5660568 -0.13639873 87
0.32072011 -1.599236 -0.08319784 88
0.31590909 -1.5766737 -0.027400276 91
0.27770075 -1.3872361 0.36857688 16
0.31134811 -1.556731 0.35740176 30
0.29794732 -1.4910808 0.28786287 8
0.29851025 -1.4952559 0.23517443 10
0.28511631 -1.4294645 0.17402543 11
0.29172552 -1.4639325 0.12699352 12
0.28436261 -1.4282845 0.074069552 17
0.31370828 -1.5771179 0.027126303 93
0.23351729 -1.1793485 -0.31167376 18
0.25419441 -1.2849524 -0.29333919 13
0.29672715 -1.5013319 -0.28976923 21
0.31259862 -1.5830884 -0.24923801 86
0.31093848 -1.5761284 -0.19227985 84
0.30791882 -1.5622576 -0.13596296 89
0.31417108 -1.5954467 -0.082937032 90
0.31040356 -1.5777669 -0.027400276 89
0.27285668 -1.3881971 0.36857688 16
0.29370764 -1.4956586 0.34279102 19
0.29746547 -1.5161941 0.29262879 15
0.2856895 -1.4575179 0.22892395 10
0.28012481 -1.4304509 0.17402543 13
0.28757009 -1.4698304 0.12742843 11
0.27937523 -1.4292685 0.074069552 13
0.30820119 -1.5782034 0.027126303 94
0.22479126 -1.1564507 -0.30520752 35
0.24134836 -1.2427877 -0.28322405 27
0.2858755 -1.4734478 -0.28405011 18
0.3070707 -1.5841699 -0.24923801 84
0.30543488 -1.5772041 -0.19227985 84
0.30246362 -1.5633229 -0.13596296 87
0.30860001 -1.5965337 -0.082937032 86
0.30489424 -1.5788409 -0.027400276 90
0.2689243 -1.3938835 0.36987013 17
0.27834177 -1.4440508 0.33042803 15
0.29681182 -1.5413219 0.29739475 28
0.29366231 -1.5264015 0.23986229 12
0.27512991 -1.4314202 0.17402543 11
0.28431636 -1.4806086 0.12829827 9
0.28096983 -1.4645612 0.075895213 15
0.30269036 -1.5792696 0.027126303 94
0.21441796 -1.1240183 -0.29615477 48
0.23609668 -1.2388368 -0.28210014 32
0.27522221 -1.4455066 -0.27833098 16
0.30153906 -1.585232 -0.24923801 86
0.29992753 -1.5782607 -0.19227985 83
0.29700479 -1.5643692 -0.13596296 87
0.30302519 -1.5976011 -0.082937032 88
0.29938117 -1.5798955 -0.027400276 89
0.26405707 -1.3948138 0.36987013 18
0.26967776 -1.4258651 0.32593241 12
0.29507503 -1.5616404 0.30120748 38
0.29016453 -1.537123 0.24142492 31
0.26921195 -1.4274949 0.17341694 9
0.28467986 -1.5109615 0.13090771 10
0.28232133 -1.4998823 0.077720873 20
0.29717582 -1.5803165 0.027126303 95
0.22204304 -1.1864765 -0.31296703 34
0.25080785 -1.3401799 -0.30570215 28
0.26772109 -1.4319372 -0.27547142 14
0.29628056 -1.5862234 -0.24923801 86
0.29378182 -1.5743679 -0.19167136 83
0.29181552 -1.5653455 -0.13596296 89
0.29772568 -1.5985972 -0.082937032 89
0.2941404 -1.5808794 -0.027400276 89
0.25943026 -1.3956817 0.36987013 17
0.266727 -1.4363317 0.32818022 10
0.29347605 -1.5819142 0.30502024 74
0.2931655 -1.5817796 0.2484567 108
0.26447669 -1.4283799 0.17341694 9
0.28510383 -1.541285 0.13351716 61
0.28460494 -1.5400907 0.079807341 31
0.29193369 -1.5812933 0.027126303 93
0.22857986 -1.2442106 -0.32848606 40
0.27163368 -1.4800154 -0.3382954 29
0.26095065 -1.4232073 -0.27356502 14
0.28985199 -1.5823901 -0.2484567 83
0.28828445 -1.5753838 -0.19167136 83
0.28634965 -1.5663545 -0.13596296 87
0.2921437 -1.5996267 -0.082937032 86
0.287723 -1.5769787 -0.027313014 89
0.25542295 -1.4013304 0.3711634 17
0.26345724 -1.4468405 0.33042803 18
0.28883082 -1.5877582 0.30597344 98
0.2876423 -1.5827934 0.2484567 128
0.25948912 -1.4292943 0.17341694 9
0.28327766 -1.5618752 0.1352568 111
0.28367838 -1.5656408 0.081111379 81
0.28552172 -1.5773835 0.027039913 93
0.24906293 -1.3828487 -0.36599037 30
0.28027001 -1.5576751 -0.35627785 27
0.26119119 -1.4530948 -0.27928415 16
0.28432667 -1.5833923 -0.2484567 85
0.28278357 -1.5763805 -0.19167136 83
0.2808803 -1.5673445 -0.13596296 87
0.28567824 -1.5957217 -0.082676224 89
0.28221661 -1.5779734 -0.027313014 90
0.25052983 -1.4022135 0.3711634 18
0.26011738 -1.4573439 0.33267587 15
0.28328675 -1.5887567 0.30597344 91
0.28124949 -1.5789257 0.24767539 125
0.25362888 -1.4253054 0.17280847 10
0.27782398 -1.5628545 0.1352568 112
0.27908462 -1.5715377 0.081372187 101
0.28001389 -1.5783706 0.027039913 93
0.27109921 -1.5359124 -0.40737444 16
0.27736905 -1.5730381 -0.35964957 37
0.26037475 -1.4781672 -0.28405011 19
0.27879786 -1.584375 -0.2484567 86
0.27642003 -1.5724702 -0.19106288 83
0.27540755 -1.5683154 -0.13596296 88
0.28010643 -1.596709 -0.082676224 89
0.27670673 -1.578949 -0.027313014 89
0.24563365 -1.4030793 0.3711634 18
0.25586802 -1.4630421 0.33379978 16
0.27942869 -1.599406 0.30787984 39
0.27488726 -1.5750328 0.24689408 73
0.2486521 -1.4261819 0.17280847 12
0.26980287 -1.5490932 0.13395208 32
0.27274132 -1.567583 0.081111379 89
0.27450266 -1.5793384 0.027039913 93
0.27314246 -1.5796825 -0.41901374 14
0.27187645 -1.5739967 -0.35964957 80
0.25938639 -1.5032512 -0.28881606 24
0.27326566 -1.5853386 -0.2484567 84
0.2709294 -1.5734254 -0.19106288 83
0.26908705 -1.5643585 -0.13552718 90
0.27453116 -1.5976772 -0.082676224 90
0.27119347 -1.5799052 -0.027313014 89
0.24073449 -1.4039283 0.3711634 17
0.25075948 -1.4639264 0.33379978 15
0.26639345 -1.5568297 0.29930112 24
0.26938766 -1.5759827 0.24689408 20
0.24367227 -1.4270411 0.17280847 13
0.25853112 -1.5156548 0.13090771 12
0.26055801 -1.5291475 0.079024911 20
0.26898807 -1.580287 0.027039913 92
0.26923931 -1.5901505 -0.42160022 14
0.26638052 -1.5749362 -0.35964957 105
0.25822601 -1.5283459 -0.29358199 35
0.26690823 -1.5814131 -0.24767539 87
0.26543549 -1.5743616 -0.19106288 83
0.26362479 -1.5652882 -0.13552718 88
0.26895252 -1.5986257 -0.082676224 91
0.26484838 -1.5759121 -0.027225751 91
0.23663205 -1.4095231 0.37245664 18
0.24564792 -1.4647928 0.33379978 13
0.25365892 -1.5141824 0.29072243 20
0.26306969 -1.5720427 0.24611278 14
0.23950775 -1.4327781 0.17341694 11
0.24913695 -1.4919828 0.12873317 11
0.25193256 -1.5103471 0.077981681 10
0.26347017 -1.5812163 0.027039913 94
0.26368698 -1.5910807 -0.42160022 16
0.26167709 -1.5806632 -0.3607735 111
0.25609273 -1.5486082 -0.29739475 68
0.26138645 -1.5823352 -0.24767539 84
0.25993833 -1.5752785 -0.19106288 82
0.25815931 -1.5661988 -0.13552718 88
0.26255944 -1.5946279 -0.082415417 88
0.2593458 -1.5768269 -0.027225751 90
0.23171045 -1.4103407 0.37245664 18
0.24053334 -1.4656414 0.33379978 12
0.24201953 -1.4763095 0.28309694 29
0.25758067 -1.5729514 0.24611278 14
0.23450497 -1.4336053 0.17341694 12
0.2431242 -1.4879276 0.12829827 15
0.24263722 -1.4865775 0.076677635 8
0.25714463 -1.5771922 0.026953524 93
0.2581315 -1.5919913 -0.42160022 29
0.25615796 -1.5815669 -0.3607735 105
0.25303721 -1.5640285 -0.30025432 78
0.25586146 -1.583238 -0.24767539 86
0.25443798 -1.5761763 -0.19106288 85
0.25269067 -1.5670905 -0.13552718 86
0.25699157 -1.5955347 -0.082415417 86
0.25384006 -1.5777225 -0.027225751 91
0.22678603 -1.4111408 0.37245664 18
0.23541582 -1.466472 0.33379978 15
0.23919618 -1.4916846 0.2859565 30
0.25208846 -1.5738409 0.24611278 12
0.22949933 -1.4344152 0.17341694 12
0.23792888 -1.4887671 0.12829827 14
0.23744662 -1.4874153 0.076677635 14
0.25163764 -1.5780802 0.026953524 95
0.25181645 -1.5881124 -0.42030698 33
0.25139782 -1.5872635 -0.36189741 98
0.24834318 -1.5697503 -0.30120748 82
0.2503334 -1.5841213 -0.24767539 86
0.24893454 -1.5770549 -0.19106288 83
0.24721898 -1.567963 -0.13552718 90
0.25142053 -1.5964222 -0.082415417 87
0.24833123 -1.5785991 -0.027225751 90
0.22260858 -1.4166952 0.37374988 19
0.23029543 -1.4672849 0.33379978 15
0.23322758 -1.4876614 0.2850033 42
0.24659319 -1.5747112 0.24611278 13
0.22449088 -1.4352076 0.17341694 12
0.23273066 -1.4895886 0.12829827 14
0.23148321 -1.4833016 0.076416828 15
0.24612759 -1.5789491 0.026953524 94
0.2455316 -1.5842088 -0.41901374 11
0.24585572 -1.5881313 -0.36189741 90
0.24286222 -1.5706077 -0.30120748 87
0.24480224 -1.5849855 -0.24767539 86
0.24342808 -1.5779141 -0.19106288 83
0.24174425 -1.5688164 -0.13552718 88
0.24584645 -1.59729 -0.082415417 88
0.24281938 -1.5794563 -0.027225751 88
0.21766202 -1.4174635 0.37374988 19
0.22517227 -1.4680798 0.33379978 13
0.22803324 -1.4884664 0.2850033 48
0.24109493 -1.5755624 0.24611278 13
0.21947971 -1.4359825 0.17341694 13
0.22752962 -1.4903919 0.12829827 14
0.22555143 -1.4791645 0.07615602 16
0.24061455 -1.5797985 0.026953524 94
0.237831 -1.57073 -0.41513398 7
0.24058793 -1.5889379 -0.36189741 87
0.23765256 -1.5714043 -0.30120748 85
0.23880726 -1.5809056 -0.24689408 84
0.23819418 -1.5787126 -0.19106288 84
0.23654054 -1.5696095 -0.13552718 89
0.24054828 -1.5980965 -0.082415417 88
0.23758037 -1.5802528 -0.027225751 88
0.21296033 -1.4181776 0.37374988 19
0.21958004 -1.4640003 0.33267587 12
0.22382323 -1.4940685 0.2859565 52
0.23586886 -1.5763533 0.24611278 16
0.21471661 -1.4367024 0.17341694 14
0.22258604 -1.4911382 0.12829827 14
0.21990877 -1.4749656 0.075895213 13
0.23537441 -1.5805877 0.026953524 94
0.2361571 -1.595399 -0.42160022 6
0.23504004 -1.5897681 -0.36189741 85
0.23288292 -1.57708 -0.30216068 86
0.23328742 -1.5817295 -0.24689408 84
0.23268199 -1.5795344 -0.19106288 83
0.23106015 -1.5704256 -0.13552718 86
0.23496841 -1.5989264 -0.082415417 88
0.23206282 -1.5810726 -0.027225751 91
0.20800868 -1.4189123 0.37374988 20
0.21446839 -1.4647579 0.33267587 13
0.21860662 -1.4948406 0.2859565 52
0.23107868 -1.5820537 0.24689408 17
0.20970029 -1.437443 0.17341694 14
0.21737964 -1.4919062 0.12829827 14
0.21403976 -1.4707832 0.075634405 13
0.22985569 -1.5813998 0.026953524 93
0.22368121 -1.5484113 -0.40866768 3
0.2294893 -1.5905788 -0.36189741 83
0.22737646 -1.5778834 -0.30216068 86
0.22776474 -1.5825342 -0.24689408 84
0.22716698 -1.5803372 -0.19106288 85
0.22486907 -1.566292 -0.13509139 87
0.2293857 -1.5997368 -0.082415417 88
0.22654243 -1.5818731 -0.027225751 88
0.2030545 -1.4196298 0.37374988 21
0.20866513 -1.4606745 0.33155197 15
0.21338731 -1.4955947 0.2859565 52
0.22555487 -1.5828507 0.24689408 17
0.20468138 -1.4381664 0.17341694 14
0.21146962 -1.4877242 0.12786335 15
0.20820263 -1.4665778 0.075373597 14
0.2243342 -1.5821924 0.026953524 95
0.21692719 -1.5396173 -0.4060812 2
0.22393572 -1.5913702 -0.36189741 72
0.22186723 -1.5786674 -0.30216068 87
0.22223927 -1.5833197 -0.24689408 86
0.2216492 -1.5811204 -0.19106288 86
0.2194003 -1.5670675 -0.13509139 88
0.22380018 -1.6005278 -0.082415417 89
0.2210193 -1.5826541 -0.027225751 91
0.19809781 -1.4203298 0.37374988 20
0.20222083 -1.451743 0.32930413 15
0.20816542 -1.4963305 0.2859565 50
0.22002833 -1.5836283 0.24689408 18
0.19829574 -1.4290406 0.17219999 14
0.20627521 -1.4884534 0.12786335 14
0.20171295 -1.4574034 0.074851982 14
0.21853365 -1.5830041 0.026953524 93
0.19946896 -1.4542712 -0.38280267 2
0.21837944 -1.5921421 -0.36189741 50
0.21635529 -1.5794322 -0.30216068 88
0.21671109 -1.5840857 -0.24689408 84
0.21545689 -1.5769674 -0.19045439 82
0.21392891 -1.5678236 -0.13509139 87
0.21821192 -1.6012993 -0.082415417 88
0.21549346 -1.5834159 -0.027225751 92
0.19248827 -1.4162269 0.37245664 20
0.19584142 -1.4427845 0.32705632 14
0.20228162 -1.4921842 0.2850033 42
0.21383654 -1.5794929 0.24611278 19
0.19264133 -1.4248059 0.17159151 14
0.20041172 -1.4842281 0.12742843 14
0.19528985 -1.448202 0.07433036 15
0.21261577 -1.5787655 0.026867134 93
0.18183632 -1.3591806 -0.35693762 2
0.21217532 -1.5880656 -0.3607735 33
0.21084073 -1.5801778 -0.30216068 86
0.21118028 -1.5848325 -0.24689408 86
0.20995094 -1.5777098 -0.19045439 84
0.20845485 -1.568561 -0.13509139 89
0.21262102 -1.6020511 -0.082415417 88
0.20996499 -1.5841585 -0.027225751 91
0.186276 -1.4073141 0.36987013 17
0.18952705 -1.4337993 0.32480851 10
0.19514462 -1.4782829 0.28214374 31
0.21025817 -1.5949183 0.2484567 15
0.18637106 -1.4156289 0.17037454 12
0.19393098 -1.4750415 0.12655862 14
0.18893346 -1.4389734 0.073808745 15
0.20710357 -1.5794981 0.026867134 94
0.15962619 -1.2257035 -0.32072657 2
0.20411724 -1.5694711 -0.35627785 25
0.20532359 -1.5809041 -0.30216068 85
0.2056469 -1.5855601 -0.24689408 86
0.20444241 -1.5784332 -0.19045439 84
0.2029783 -1.569279 -0.13509139 88
0.20638788 -1.5978317 -0.082154609 88
0.2037944 -1.5799236 -0.02713849 93
0.18012834 -1.398375 0.36728364 15
0.18265623 -1.4199554 0.32143679 8
0.1868564 -1.4546133 0.27737778 20
0.20091935 -1.5662519 0.24376884 10
0.18079789 -1.4113482 0.16976607 9
0.18498865 -1.4460647 0.12394916 13
0.18201116 -1.4247653 0.073026322 15
0.20158882 -1.5802113 0.026867134 94
0.15352567 -1.2118785 -0.31684682 3
0.199249 -1.5750074 -0.35740176 18
0.1991888 -1.5767416 -0.30120748 87
0.200111 -1.5862682 -0.24689408 86
0.19893141 -1.5791371 -0.19045439 85
0.19749925 -1.569978 -0.13509139 88
0.20080917 -1.5985423 -0.082154609 86
0.1982782 -1.5806253 -0.02713849 90
0.17464569 -1.3942029 0.36599037 27
0.17588437 -1.4060812 0.31806511 15
0.17934421 -1.435775 0.27356502 17
0.18567055 -1.4885341 0.23126788 15
0.17464343 -1.4021213 0.16854911 16
0.17625099 -1.4170439 0.12133971 14
0.17519039 -1.4105266 0.072243899 16
0.19607164 -1.5809054 0.026867134 93
0.15401675 -1.2507561 -0.32719281 3
0.19256081 -1.5660223 -0.35515395 11
0.19368371 -1.5774273 -0.30120748 87
0.19457267 -1.5869571 -0.24689408 86
0.193418 -1.5798219 -0.19045439 84
0.19201779 -1.5706578 -0.13509139 89
0.19522798 -1.5992336 -0.082154609 87
0.19275959 -1.5813079 -0.02713849 93
0.16861077 -1.385215 0.36340389 33
0.16979948 -1.3970138 0.3158173 32
0.17019175 -1.4022846 0.26689273 28
0.16977859 -1.4009244 0.2172043 27
0.16915183 -1.3977953 0.16794063 26
0.16652317 -1.3780899 0.11786044 30
0.16906939 -1.4012152 0.071722284 33
0.18995404 -1.5766166 0.026780745 94
0.14907631 -1.2464905 -0.32589957 3
nan nan nan 0
0.18817629 -1.5780938 -0.30120748 87
0.1884481 -1.5827227 -0.24611278 86
0.1873163 -1.5755593 -0.18984592 85
0.186534 -1.5713186 -0.13509139 87
0.18964441 -1.5999054 -0.082154609 88
0.1872386 -1.581971 -0.02713849 89
0.16320758 -1.3809988 0.36211061 55
0.16435099 -1.3927593 0.31469339 57
0.16529584 -1.4028701 0.26689273 28
0.1648874 -1.4015085 0.2172043 35
0.16311355 -1.3885195 0.16672367 32
0.16345257 -1.3935041 0.11916516 43
0.16243473 -1.3869189 0.070939861 40
0.18444946 -1.5772703 0.026780745 94
0.14472434 -1.2470033 -0.32589957 4
nan nan nan 0
0.18210241 -1.5738652 -0.30025432 89
0.18292221 -1.5833708 -0.24611278 83
0.18181545 -1.5762037 -0.18984592 85
0.18047805 -1.567012 -0.13465562 87
0.18348813 -1.595597 -0.081893802 88
0.18171535 -1.582615 -0.02713849 91
0.15838601 -1.3815601 0.36211061 56
0.1589343 -1.3884844 0.31356949 64
0.16039789 -1.4034386 0.26689273 31
0.1594343 -1.3971688 0.21642299 35
0.15826572 -1.3890805 0.16672367 35
0.16083935 -1.4138627 0.1209048 51
0.15702899 -1.3825161 0.070679054 54
0.17894265 -1.5779046 0.026780745 95
0.14091067 -1.2523005 -0.32719281 4
nan nan nan 0
0.17660749 -1.5744913 -0.30025432 88
0.17739409 -1.5839996 -0.24611278 84
0.17631236 -1.5768286 -0.18984592 83
0.17500705 -1.5676323 -0.13465562 90
0.17791732 -1.5962279 -0.081893802 88
0.1761899 -1.5832397 -0.02713849 89
0.1535625 -1.3821046 0.36211061 50
0.15354943 -1.3841882 0.31244558 38
0.16252205 -1.46741 0.27928415 16
0.15727024 -1.42226 0.22032954 16
0.15450515 -1.3994901 0.16794063 24
0.1586317 -1.4391708 0.12307934 26
0.15110976 -1.3731294 0.070157431 62
0.17343365 -1.5785195 0.026780745 91
0.13706176 -1.2575861 -0.32848606 5
nan nan nan 0
0.1713853 -1.5750682 -0.30025432 88
0.17214039 -1.5845792 -0.24611278 84
0.17108244 -1.5774046 -0.18984592 84
0.16980763 -1.5682042 -0.13465562 88
0.17262307 -1.596809 -0.081893802 89
0.17093872 -1.5838152 -0.02713849 92
0.14897843 -1.3826063 0.36211061 30
0.14843737 -1.3798457 0.31132168 12
0.16551703 -1.5411445 0.29358199 16
0.15676506 -1.4620572 0.22658001 8
0.15197635 -1.4197333 0.17037454 21
0.1570342 -1.4694059 0.12568879 18
0.14655545 -1.3736228 0.070157431 55
0.16819812 -1.5790859 0.026780745 93
0.13339807 -1.2628369 -0.32977933 5
nan nan nan 0
0.16588627 -1.5756569 -0.30025432 88
0.16660814 -1.5851705 -0.24611278 87
0.16557522 -1.5779921 -0.18984592 85
0.16433254 -1.5687872 -0.13465562 87
0.16704811 -1.5974019 -0.081893802 90
0.16540912 -1.5844023 -0.02713849 90
0.14465198 -1.3879217 0.36340389 21
0.1431157 -1.3755095 0.31019777 9
0.1611506 -1.5514768 0.29548836 42
0.1567542 -1.5117179 0.23439312 15
0.14906363 -1.440001 0.17280847 40
0.1534401 -1.4848092 0.12699352 19
0.14124732 -1.3691591 0.069896623 55
0.16268505 -1.5796634 0.026780745 94
0.12898913 -1.2632949 -0.32977933 5
nan nan nan 0
0.16038519 -1.5762264 -0.30025432 87
0.16107385 -1.5857425 -0.24611278 85
0.16006599 -1.5785605 -0.18984592 83
0.15885545 -1.5693513 -0.13465562 87
0.16147113 -1.5979753 -0.081893802 87
0.15987752 -1.58497 -0.02713849 88
0.13980635 -1.3884181 0.36340389 18
0.13782611 -1.3711531 0.30907387 10
0.1581842 -1.5764487 0.30025432 62
0.15049195 -1.5024281 0.23283051 9
0.14749257 -1.4750799 0.17706783 67
0.14578263 -1.4605536 0.12481898 16
0.13646719 -1.3696438 0.069896623 58
0.15766481 -1.5851965 0.026867134 92
0.12505245 -1.2685438 -0.33107257 5
nan nan nan 0
0.15488216 -1.5767765 -0.30025432 86
0.15553758 -1.586295 -0.24611278 87
0.1545548 -1.5791097 -0.18984592 85
0.15337643 -1.5698963 -0.13465562 88
0.15589215 -1.5985291 -0.081893802 87
0.15434396 -1.5855185 -0.02713849 88
0.134959 -1.3888975 0.36340389 19
0.13256872 -1.3667765 0.30794996 11
0.15362641 -1.5867623 0.30216068 36
0.14239621 -1.4734499 0.22814263 7
0.13996005 -1.4508864 0.17402543 60
0.13925123 -1.4461793 0.12351425 10
0.13168542 -1.3701118 0.069896623 68
0.15213047 -1.5857371 0.026867134 91
0.12062364 -1.2689726 -0.33107257 5
nan nan nan 0
0.14937723 -1.5773076 -0.30025432 77
0.14999942 -1.5868282 -0.24611278 86
0.14904174 -1.5796394 -0.18984592 86
0.14789553 -1.5704221 -0.13465562 87
0.15031131 -1.5990636 -0.081893802 88
0.14880854 -1.5860474 -0.02713849 90
0.13011004 -1.3893602 0.36340389 15
0.12689012 -1.3575293 0.30570215 13
0.14763069 -1.5824019 0.30120748 18
0.13358888 -1.4345996 0.22189215 6
0.13122039 -1.4118338 0.16915759 35
0.13282196 -1.4317772 0.12220953 13
0.12690204 -1.3705633 0.069896623 64
0.14659429 -1.5862585 0.026867134 93
0.11619336 -1.2693859 -0.33107257 5
nan nan nan 0
0.14342479 -1.5729315 -0.29930112 62
0.14445946 -1.5873423 -0.24611278 86
0.14352687 -1.5801502 -0.18984592 83
0.14241284 -1.5709287 -0.13465562 89
0.1447286 -1.5995786 -0.081893802 88
0.14282168 -1.5815784 -0.027051229 92
0.12525946 -1.3898059 0.36340389 14
0.1221507 -1.3579639 0.30570215 11
0.14210618 -1.5829074 0.30120748 13
0.12549528 -1.4006251 0.21642299 5
0.12408122 -1.3875678 0.16611519 31
0.12649497 -1.4173483 0.1209048 12
0.12211712 -1.3709978 0.069896623 59
0.14105633 -1.5867605 0.026867134 93
0.11176167 -1.269784 -0.33107257 5
nan nan nan 0
0.13793337 -1.5734226 -0.29930112 59
0.13891771 -1.5878367 -0.24611278 88
0.13801023 -1.5806416 -0.18984592 83
0.13692841 -1.5714163 -0.13465562 90
0.13914415 -1.6000739 -0.081893802 88
0.13730007 -1.5820673 -0.027051229 92
0.12040737 -1.3902347 0.36340389 15
0.11699023 -1.353528 0.30457824 9
0.13700174 -1.588284 0.30216068 14
0.1189112 -1.3813732 0.21329775 6
0.11583877 -1.3484354 0.16124733 31
0.12069579 -1.4078555 0.12003498 11
0.11690505 -1.3664407 0.069635808 46
0.13509135 -1.582262 0.026780745 93
0.10732862 -1.2701663 -0.33107257 5
nan nan nan 0
0.13244024 -1.5738945 -0.29930112 76
0.13337429 -1.588312 -0.24611278 87
0.1320775 -1.5761682 -0.18923745 84
0.13144231 -1.5718846 -0.13465562 89
0.13355801 -1.6005499 -0.081893802 88
0.13177679 -1.5825369 -0.027051229 89
0.11555381 -1.3906466 0.36340389 16
0.11186222 -1.3490728 0.30345434 8
0.13145678 -1.5887525 0.30216068 13
0.11327584 -1.3719362 0.21173513 6
0.11113114 -1.3488315 0.16124733 31
0.11537258 -1.403304 0.11960007 10
0.11213458 -1.3668405 0.069635808 37
0.12956741 -1.582724 0.026780745 93
0.10289426 -1.2705332 -0.33107257 5
nan nan nan 0
0.12694553 -1.5743471 -0.29930112 78
0.12782922 -1.588768 -0.24611278 89
0.12657484 -1.5766195 -0.18923745 84
0.1259546 -1.5723339 -0.13465562 89
0.12797023 -1.6010064 -0.081893802 89
0.12625191 -1.5829873 -0.027051229 89
0.11069886 -1.3910414 0.36340389 16
0.1071524 -1.349455 0.30345434 8
0.12629786 -1.5940948 0.30311388 13
0.10809699 -1.3674001 0.21095382 9
0.10642217 -1.3492112 0.16124733 31
0.11008264 -1.3987324 0.11916516 11
0.10697183 -1.3622457 0.069375001 34
0.12404189 -1.5831666 0.026780745 93
0.098458633 -1.2708846 -0.33107257 5
nan nan nan 0
0.12144926 -1.5747807 -0.29930112 85
0.12190373 -1.5842804 -0.24533147 85
0.12107065 -1.5770518 -0.18923745 84
0.12008496 -1.5677977 -0.13421984 89
0.1223809 -1.6014433 -0.081893802 87
0.12072548 -1.5834184 -0.027051229 92
0.10584254 -1.3914194 0.36340389 16
0.10244127 -1.3498209 0.30345434 9
0.12110322 -1.5994201 0.30406705 15
0.10332323 -1.3677691 0.21095382 13
0.10171189 -1.3495744 0.16124733 32
0.104826 -1.3941411 0.11873025 14
0.10184255 -1.3576317 0.069114193 33
0.11851484 -1.5835899 0.026780745 93
0.094021827 -1.2712206 -0.33107257 5
nan nan nan 0
0.11595151 -1.5751951 -0.29930112 87
0.11637281 -1.5846963 -0.24533147 86
0.11556498 -1.5774648 -0.18923745 87
0.1146116 -1.5682073 -0.13421984 88
0.116427 -1.5968808 -0.081632994 91
0.11519758 -1.5838301 -0.027051229 90
0.10063541 -1.3869632 0.36211061 14
0.097728893 -1.3501703 0.30345434 9
0.11551947 -1.5998331 0.30406705 15
0.098548189 -1.3681214 0.21095382 16
0.097356066 -1.3548713 0.16185582 34
0.099602774 -1.3895302 0.11829534 17
0.09710291 -1.3579789 0.069114193 33
0.11298636 -1.583994 0.026780745 92
0.089583859 -1.271541 -0.33107257 6
nan nan nan 0
0.11045235 -1.5755903 -0.29930112 86
0.11084048 -1.5850929 -0.24533147 86
0.11005789 -1.5778587 -0.18923745 86
0.10913683 -1.5685978 -0.13421984 89
0.11085212 -1.5972774 -0.081632994 87
0.10966828 -1.5842226 -0.027051229 89
0.095793389 -1.3873061 0.36211061 14
0.092680559 -1.3456426 0.30233043 8
0.10993431 -1.6002266 0.30406705 17
0.093771964 -1.3684571 0.21095382 17
0.092626095 -1.3552028 0.16185582 33
0.094413012 -1.3849 0.11786044 15
0.092023343 -1.3533279 0.068853386 34
0.1074565 -1.5843788 0.026780745 94
0.085144818 -1.2718459 -0.33107257 5
nan nan nan 0
0.10495183 -1.5759661 -0.29930112 88
0.1053068 -1.5854701 -0.24533147 89
0.10454946 -1.5782332 -0.18923745 85
0.10366075 -1.5689691 -0.13421984 89
0.10527591 -1.5976547 -0.081632994 88
0.10413765 -1.5845958 -0.027051229 90
0.090950198 -1.387632 0.36211061 14
0.087982818 -1.3459579 0.30233043 10
0.1043478 -1.6006006 0.30406705 14
0.08931499 -1.3737042 0.21173513 14
0.087894984 -1.355518 0.16185582 35
0.08893536 -1.3752798 0.11699062 16
0.087298788 -1.3536409 0.068853386 38
0.10160446 -1.5797554 0.026694356 95
0.080704719 -1.2721355 -0.33107257 6
nan nan nan 0
0.099450044 -1.576323 -0.29930112 90
0.099771842 -1.5858279 -0.24533147 86
0.099039763 -1.5785885 -0.18923745 85
0.098183386 -1.5693215 -0.13421984 89
0.099698417 -1.5980124 -0.081632994 89
0.098605745 -1.5849495 -0.027051229 89
0.085806847 -1.3831204 0.36081737 15
0.083284013 -1.3462569 0.30233043 11
0.098760031 -1.600955 0.30406705 16
0.084822536 -1.3789369 0.21251644 16
