# .PCD v0.7 - Point Cloud Data file format
VERSION 0.7
FIELDS x y z intensity
SIZE 4 4 4 4
TYPE F F F F
COUNT 1 1 1 1
WIDTH 1423
HEIGHT 1
VIEWPOINT 0 0 0 1 0 0 0
POINTS 1423
DATA ascii
0.45794013 1.0165894 -0.248383 39
0.45535961 1.0103899 -0.20779505 17
1.1524878 2.5560451 -0.43753383 4
1.4829915 3.2875211 -0.4374975 73
1.4868803 3.2946079 -0.31288913 76
1.4869562 3.2932429 -0.18673874 79
1.4934289 3.30604 -0.062654138 86
1.4936472 3.3049855 0.96088642 46
1.4930885 3.3022134 0.82719404 37
1.4925251 3.2994332 0.69582742 55
1.4940686 3.3013108 0.56723136 39
1.4978151 3.3080518 0.4405399 43
1.4976674 3.30619 0.31356964 46
1.4956752 3.3002594 0.18726036 53
1.4959837 3.2994084 0.061941274 53
0.48742545 1.0725324 -0.30520752 6
0.46148592 1.0149847 -0.248383 39
0.45685136 1.0043263 -0.20684186 17
1.1634487 2.5565016 -0.43831512 4
1.4965143 3.2868409 -0.43810597 75
1.5004363 3.2939305 -0.3133249 73
1.5005134 3.2925763 -0.18699956 78
1.5070341 3.3053555 -0.062741399 84
1.5071791 3.3041461 0.96217966 49
1.5066291 3.301414 0.82831794 36
1.5060718 3.2986684 0.69678068 48
1.5076351 3.3005676 0.56801265 39
1.5114161 3.3073175 0.4411484 46
1.5112702 3.3054721 0.31400454 44
1.5113401 3.3041 0.18778197 53
1.5116525 3.3032582 0.062114052 53
0.48311174 1.0532643 -0.30003452 4
0.46299404 1.0089395 -0.2472591 38
0.46035436 1.0027255 -0.20684186 21
1.1703042 2.5479372 -0.43753383 4
1.5100508 3.2861066 -0.43871447 77
1.5140058 3.2931983 -0.31376067 75
1.514084 3.2918546 -0.18726036 78
1.5206525 3.3046165 -0.06282866 84
1.5207233 3.3032517 0.9634729 44
1.5201821 3.3005598 0.82944185 37
1.5196311 3.2978487 0.69773382 39
1.5232823 3.3042545 0.56957531 39
1.5271088 3.3110349 0.44236535 46
1.5248863 3.3046992 0.31443948 43
1.5249572 3.3033376 0.18804279 53
1.5252696 3.3024998 0.062200438 51
nan nan nan 0
0.46651304 1.0073172 -0.2472591 38
0.45972478 0.9922055 -0.20493548 25
1.17296 2.5303943 -0.43518987 33
1.5236001 3.2853179 -0.43932295 74
1.5275884 3.2924118 -0.31419647 75
1.5276679 3.2910786 -0.18752117 78
1.5342841 3.3038223 -0.062915921 82
1.5342798 3.3023038 0.9647662 48
1.5358013 3.3040695 0.83168966 38
1.5352728 3.3014252 0.69964021 40
1.5368901 3.303395 0.57035661 42
1.5407513 3.3101833 0.44297382 43
1.5385152 3.3038716 0.31487435 41
1.5385875 3.3025208 0.18830359 51
1.5389004 3.301687 0.062286831 58
1.2447777 2.6645763 -0.77724457 4
0.4700264 1.0056826 -0.2472591 38
0.46110645 0.98614848 -0.20398229 26
1.1922486 2.5486515 -0.43909645 13
1.5371624 3.2844744 -0.43993142 77
1.5411838 3.2915704 -0.31463224 73
1.5433826 3.294769 -0.18804279 79
1.5479288 3.3029733 -0.063003182 82
1.5478479 3.301301 0.96605939 44
1.5493944 3.3030994 0.83281356 38
1.5488729 3.3004894 0.70059341 42
1.5505108 3.3024807 0.57113791 39
1.5544066 3.3092768 0.4435823 43
1.5542753 3.3074975 0.31574419 42
1.5522304 3.3016484 0.1885644 46
1.5525438 3.3008184 0.062373217 51
1.2581903 2.6689525 -0.77983105 5
0.47145581 0.99962932 -0.24613519 36
0.4624514 0.98009396 -0.2030291 29
1.1863805 2.5132122 -0.43362728 4
1.5507373 3.2835763 -0.4405399 74
1.554792 3.2906744 -0.31506801 77
1.557008 3.2938759 -0.18830359 79
1.5615861 3.3020694 -0.063090444 88
1.5634934 3.3046098 0.96864593 39
1.5629991 3.3020742 0.83393741 36
1.5645857 3.3039348 0.70249981 49
1.5641434 3.301511 0.5719192 42
1.5680741 3.3083153 0.44419077 52
1.5679454 3.3065524 0.3161791 51
1.565886 3.3007212 0.1888252 51
1.5683434 3.3044119 0.062546 60
1.2654243 2.660183 -0.77853787 4
0.4749423 0.99797761 -0.24613519 36
0.46375978 0.974042 -0.20207591 29
1.2015173 2.5224316 -0.4359712 3
1.5664598 3.2871037 -0.44175684 75
1.5705563 3.2942195 -0.31593958 77
1.5706459 3.2929277 -0.1885644 78
1.5774091 3.3056221 -0.063264973 84
1.5770999 3.3034906 0.96993917 51
1.5766159 3.3009946 0.83506137 40
1.5782253 3.302882 0.70345294 48
1.5777884 3.3004868 0.57270056 39
1.5817541 3.3072987 0.44479927 53
1.5816278 3.3055525 0.316614 47
1.5795541 3.2997391 0.18908602 58
1.5826044 3.3031502 0.062632389 55
nan nan nan 0
0.47859687 0.99623007 -0.24613519 35
0.46520051 0.9679119 -0.20112273 31
nan nan nan 0
1.5806484 3.2858124 -0.44236535 77
1.5847796 3.2929289 -0.31637534 75
1.5870368 3.2961469 -0.18908602 70
1.5916836 3.304322 -0.063352227 83
1.5912938 3.3020387 0.97123241 50
1.5929358 3.3039711 0.83730918 38
1.5945851 3.305917 0.70535934 45
1.5920209 3.2991295 0.5734818 39
1.596023 3.3059485 0.44540775 42
1.5980653 3.3087037 0.31748381 44
1.5959824 3.3029191 0.18960764 52
1.5963006 3.3021064 0.062718779 51
nan nan nan 0
0.48207146 0.99455345 -0.24613519 33
0.46643472 0.96186578 -0.20016953 34
nan nan nan 0
1.5942755 3.2847395 -0.44297382 77
1.5984403 3.2918577 -0.31681114 75
1.6028965 3.2995694 -0.18960764 50
1.6075788 3.3077388 -0.063526757 78
1.6070343 3.3051512 0.9738189 46
1.6065904 3.302772 0.83843309 36
1.608263 3.3047442 0.70631254 40
1.607851 3.302433 0.57504445 42
1.6097263 3.3048186 0.44601622 45
1.6117871 3.3075831 0.31791875 37
1.6096901 3.3018162 0.18986844 48
1.610009 3.3010075 0.062805168 49
nan nan nan 0
0.48536688 0.99294937 -0.24613519 34
0.46962181 0.96031374 -0.20016953 35
0.49862772 1.0191762 -0.17345092 3
1.6095227 3.2883496 -0.44419077 75
1.6137288 3.295486 -0.31768268 67
1.6116328 3.2897518 -0.18934682 8
1.620739 3.3068788 -0.063614018 78
1.6201122 3.3041406 0.9751122 41
1.6196796 3.3018003 0.83955699 37
1.6213754 3.3037989 0.70726568 45
1.62097 3.3015161 0.57582575 39
1.6250527 3.3083715 0.4472332 45
1.6249434 3.3066905 0.31835362 40
1.6228335 3.3009412 0.19012925 52
1.623153 3.3001361 0.062891558 49
nan nan nan 0
0.48882997 0.99124908 -0.24613519 34
0.47079939 0.95426679 -0.19921635 34
0.49999645 1.013001 -0.1726696 3
1.6231887 3.2871611 -0.44479927 75
1.6274283 3.2942986 -0.31811845 44
nan nan nan 0
1.6367037 3.310164 -0.063788541 73
1.6337775 3.3027945 0.97640544 39
1.635517 3.3048596 0.8418048 36
1.6350758 3.3025184 0.70821887 42
1.6346766 3.3002629 0.57660705 40
1.6387947 3.3071258 0.44784164 43
1.6409007 3.3099236 0.31922346 38
1.6365646 3.2997296 0.19039005 48
1.6391069 3.3034067 0.063064329 49
0.56972075 1.145686 -0.33236581 2
0.49228707 0.9895367 -0.24613519 32
0.47412753 0.95261765 -0.19921635 33
0.50132817 1.0068285 -0.17188829 3
1.6368661 3.285917 -0.44540775 77
1.6389177 3.2885976 -0.31811845 26
nan nan nan 0
1.6504798 3.3089039 -0.063875802 56
1.647453 3.301393 0.97769868 41
1.6492193 3.3034894 0.84292871 36
1.648787 3.3011816 0.70917213 42
1.6483941 3.2989547 0.57738841 38
1.6547668 3.3102632 0.44905862 45
1.6546726 3.3086307 0.31965837 40
1.6525412 3.3029275 0.19091167 47
1.6528656 3.3021359 0.063150726 55
0.57588214 1.1480076 -0.33365908 2
0.49573821 0.98781222 -0.24613519 31
0.47524756 0.94657028 -0.19826317 34
0.50040627 0.99624628 -0.17032568 2
1.6505544 3.2846181 -0.44601622 77
nan nan nan 0
0.43897134 0.87279731 -0.049031962 30
1.6620198 3.3031228 -0.063875802 38
1.6633103 3.3042505 0.98028523 41
1.6651232 3.3064153 0.84517652 35
1.6647172 3.304173 0.71107846 49
1.6643455 3.3020008 0.578951 38
1.6685462 3.308898 0.4496671 47
1.6684554 3.3072817 0.32009327 40
1.6663103 3.3015969 0.19117248 45
1.6666355 3.3008087 0.063237108 58
0.58424723 1.1546093 -0.33624557 2
0.4991833 0.98607576 -0.24613519 32
0.47854879 0.94490558 -0.19826317 35
0.49048823 0.96806103 -0.16563781 2
1.6642536 3.283263 -0.4466247 71
nan nan nan 0
0.44201529 0.87125969 -0.049031962 23
1.6758026 3.301759 -0.063963063 32
1.6770208 3.3027308 0.98157841 40
1.6788614 3.3049264 0.84630042 39
1.6784645 3.3027174 0.71203166 48
1.6780995 3.3005731 0.5797323 38
1.6823362 3.307477 0.45027557 42
1.6845077 3.3103163 0.32096308 38
1.6823555 3.3046596 0.1916941 55
1.6826849 3.3038807 0.063409887 58
0.58827406 1.1525629 -0.33624557 2
0.50262231 0.98432732 -0.24613519 28
0.47961134 0.93885851 -0.19730997 41
0.48712209 0.95315033 -0.16329387 2
1.6802227 3.2862711 -0.44784164 69
nan nan nan 0
0.44050461 0.86082155 -0.048510343 16
1.6873177 3.2958891 -0.063963063 25
1.6907411 3.3011558 0.98287171 51
1.6948308 3.3077178 0.84854823 37
1.6944607 3.3055742 0.713938 52
1.691864 3.2990897 0.58051366 38
1.6984022 3.3104157 0.45149252 42
1.6983272 3.3088477 0.32139799 39
1.6961614 3.3032088 0.1919549 50
1.697068 3.3021374 0.063496284 47
nan nan nan 0
0.50399506 0.97814751 -0.24501128 26
0.48080033 0.93273151 -0.19635679 32
0.48382166 0.9381907 -0.16094995 2
1.6990825 3.2933223 -0.4496671 67
nan nan nan 0
0.43449309 0.84145463 -0.047467109 15
1.7016808 3.2941241 -0.064050324 17
1.7072639 3.3035178 0.9854582 39
1.7091805 3.3058119 0.84967214 37
1.7088201 3.3037012 0.71489125 54
1.7084838 3.3016388 0.58207625 38
1.7128056 3.3085761 0.45210102 43
1.712734 3.3070238 0.3218329 39
1.712851 3.3058367 0.19247651 47
1.7108849 3.3006315 0.063582666 47
1.364628 2.6270208 -0.7824176 3
0.50965303 0.98070544 -0.24613519 22
0.48178908 0.92669261 -0.19540361 21
0.4825359 0.92773342 -0.15938732 3
1.7105681 3.2873714 -0.4496671 62
0.43165421 0.82920009 -0.078440167 13
0.4351213 0.83550417 -0.047206301 15
1.7131691 3.2881641 -0.064050324 14
1.7210174 3.3018212 0.98675144 45
1.722962 3.3041451 0.85079604 37
1.7248821 3.3064196 0.71679759 54
1.7222834 3.3000333 0.58285761 39
1.7289381 3.3113754 0.453318 40
1.7288796 3.3098547 0.32270274 38
1.7266927 3.3042629 0.19273733 54
1.7270281 3.3035004 0.063755445 53
1.3760312 2.6265197 -0.78371084 3
0.50854975 0.97028983 -0.24388736 17
0.47590372 0.90761727 -0.19159085 12
0.48118311 0.91729653 -0.15782471 3
nan nan nan 0
0.43454608 0.82768828 -0.078440167 10
0.43571329 0.82955968 -0.046945494 15
1.7269619 3.2865899 -0.064137593 13
1.737027 3.3043442 0.98933792 44
1.736753 3.302423 0.85191995 37
1.7386986 3.3047223 0.71775079 52
1.7383925 3.3027415 0.5844202 39
1.7427988 3.3097115 0.45392647 38
1.7427442 3.308207 0.32313764 38
1.7428721 3.3070502 0.19325894 50
1.7408807 3.3018739 0.063841842 55
1.3874474 2.6259708 -0.78500408 4
0.50965685 0.96420139 -0.24276346 12
0.47218555 0.89293355 -0.18873128 7
0.47976336 0.90688062 -0.15626208 4
1.7357976 3.2797356 -0.45027557 14
0.43510184 0.82176441 -0.07800439 8
0.43860635 0.82803369 -0.046945494 14
1.7407644 3.2849586 -0.064224847 13
1.7508131 3.3025279 0.99063122 40
1.7528356 3.304949 0.85416776 36
1.7548244 3.3073044 0.71965712 47
1.7522261 3.3010156 0.5852015 38
1.7566688 3.307991 0.45453495 50
1.7566184 3.3065023 0.32357255 38
1.7567487 3.3053553 0.19351974 43
1.7570899 3.3046052 0.064014621 51
1.3943341 2.6168492 -0.78371084 3
nan nan nan 0
0.4660612 0.87395614 -0.18491852 8
0.47595218 0.89212853 -0.15391815 10
nan nan nan 0
0.43562162 0.8158468 -0.077568613 4
0.4367888 0.81768924 -0.046423879 11
1.7545768 3.2832716 -0.064312115 13
1.7668847 3.304915 0.99321771 44
1.7666589 3.3031063 0.8552916 35
1.7686743 3.3054864 0.72061038 49
1.7683995 3.303587 0.5867641 43
1.7728912 3.3105888 0.4557519 53
1.772854 3.3091319 0.32444239 42
1.7729934 3.3080051 0.19404137 50
1.7709768 3.3028574 0.064101003 49
nan nan nan 0
0.50253505 0.93487185 -0.23602003 3
0.46213493 0.85935533 -0.18205896 12
0.46970418 0.87306529 -0.15079291 18
nan nan nan 0
nan nan nan 0
0.4514803 0.83813941 -0.047727916 5
1.7707702 3.2859285 -0.064486638 13
1.7807024 3.3029788 0.99451101 41
1.7828038 3.3054955 0.85753942 36
1.7825323 3.303612 0.72156352 46
1.7822663 3.3017397 0.58754545 39
1.7867945 3.3087471 0.4563604 55
1.7867618 3.3073058 0.32487726 47
1.7869037 3.3061886 0.19430217 49
1.7872506 3.3054509 0.06427379 53
1.4194716 2.6197908 -0.78759056 2
nan nan nan 0
0.45811248 0.84479272 -0.1791994 17
0.465684 0.85839766 -0.14844897 22
0.48460349 0.89290023 -0.11987066 9
0.43655318 0.80403101 -0.076697052 2
0.43057013 0.79268157 -0.045119837 2
1.7846164 3.2841201 -0.064573899 12
1.7968347 3.3052297 0.99709749 49
1.7966591 3.3035324 0.85866338 36
1.7987449 3.3059928 0.72346991 40
1.7985027 3.3041737 0.58910805 39
1.8030802 3.3112068 0.45757735 47
1.8030612 3.3097966 0.3257471 55
1.8032125 3.3086994 0.1948238 47
1.8011708 3.3035812 0.064360179 49
nan nan nan 0
nan nan nan 0
0.45634893 0.83457541 -0.17729303 19
0.46156719 0.84376884 -0.14610505 25
nan nan nan 0
nan nan nan 0
0.45492196 0.8305878 -0.047467109 2
1.8008736 3.286639 -0.064748421 10
1.8130044 3.3074076 0.99968398 45
1.8128649 3.3057845 0.86091119 36
1.8126349 3.303997 0.72442311 49
1.8147777 3.3065345 0.5906707 39
1.8170159 3.3092427 0.45818582 39
1.8170017 3.3078485 0.32618201 56
1.8171558 3.3067613 0.1950846 47
1.8175086 3.3060355 0.064532958 53
nan nan nan 0
nan nan nan 0
0.45451966 0.82438082 -0.17538664 27
0.4621245 0.83782822 -0.14532374 30
0.48363224 0.87645978 -0.11804522 15
nan nan nan 0
0.44574907 0.80714005 -0.046163067 2
1.8147528 3.2847087 -0.064835683 8
1.8268747 3.3052862 1.0009773 49
1.8267506 3.3036995 0.86203504 36
1.8289087 3.3062396 0.72632951 46
1.8286998 3.3045006 0.59145194 38
1.8333638 3.311564 0.4594028 42
1.8333638 3.3102005 0.32705182 50
1.8335276 3.3091333 0.19560623 52
1.8314613 3.3040438 0.064619347 51
nan nan nan 0
nan nan nan 0
0.45500964 0.81849927 -0.17443345 29
0.46264589 0.83189386 -0.14454243 30
0.47462445 0.85308218 -0.11500282 12
nan nan nan 0
nan nan nan 0
1.8310733 3.2870886 -0.065010212 5
1.8431034 3.3073268 1.0035638 45
1.8430166 3.3058143 0.86428291 37
1.8428291 3.304122 0.72728264 45
1.8450363 3.3067224 0.5930146 36
1.847331 3.3094776 0.46001127 43
1.8473359 3.3081295 0.32748672 53
1.8475025 3.3070717 0.19586703 45
1.8484384 3.3060358 0.064792126 53
nan nan nan 0
nan nan nan 0
0.45560601 0.81254482 -0.17348027 34
0.46327576 0.82588542 -0.14376111 34
0.4728905 0.84268105 -0.11378586 12
0.46738276 0.83252579 -0.080183282 3
nan nan nan 0
1.8480062 3.2890723 -0.065184735 3
1.8575797 3.30476 1.0048569 39
1.8575085 3.3032835 0.86540681 36
1.85974 3.3059013 0.72918904 46
1.8595657 3.3042417 0.5937959 38
1.864318 3.3113334 0.46122825 43
1.8643374 3.3100164 0.32835653 47
1.8645135 3.3089783 0.19638865 43
1.8648771 3.3082736 0.064964905 49
0.49626714 0.87857985 -0.25994369 2
nan nan nan 0
0.45602405 0.80667663 -0.17252707 42
0.46372467 0.81996447 -0.1429798 36
0.47582912 0.84102517 -0.11378586 13
0.47519299 0.83955884 -0.081054844 12
nan nan nan 0
1.8644041 3.291301 -0.065359257 3
1.8738666 3.3066595 1.0074435 39
1.8738335 3.3052561 0.86765462 35
1.8761113 3.3079283 0.73109537 50
1.8759626 3.3063209 0.59535855 38
1.8807651 3.3134379 0.4624452 45
1.8783398 3.3078201 0.32879147 46
1.8785189 3.3067913 0.19664946 52
1.8788838 3.3060901 0.065051295 54
0.51606143 0.90622139 -0.26899645 3
nan nan nan 0
0.45883712 0.80507994 -0.17252707 43
0.46658406 0.81834078 -0.1429798 39
0.47876197 0.8393591 -0.11378586 13
0.47565207 0.83356881 -0.08061906 26
nan nan nan 0
1.8808398 3.2934551 -0.06553378 25
1.8877935 3.3042922 1.0087367 49
1.8901948 3.3071549 0.86990243 36
1.8900831 3.3056202 0.73204863 51
1.8899444 3.3040392 0.59613985 39
1.8947845 3.3111596 0.46305367 40
1.8948241 3.3098886 0.32966128 43
1.8950133 3.3088796 0.19717108 52
1.8953834 3.308187 0.065224074 42
0.53124499 0.92535776 -0.27546272 3
nan nan nan 0
0.45919934 0.79921758 -0.17157389 48
0.4669767 0.81242543 -0.14219849 43
0.48168898 0.83768278 -0.11378586 14
0.46365663 0.80599797 -0.07800439 29
0.47235999 0.82079607 -0.047467109 2
1.8973135 3.2955348 -0.065708302 25
1.9041371 3.3060529 1.0113232 39
1.9065921 3.3089795 0.87215024 39
1.9065127 3.3075073 0.73395497 48
1.9064003 3.3059785 0.59770244 38
1.9112908 3.3131232 0.46427062 40
1.908856 3.3075686 0.33009619 40
1.9090486 3.3065691 0.19743188 50
1.90942 3.3058796 0.065310463 49
0.51511747 0.89005584 -0.26511672 2
0.45369485 0.78361005 -0.20005508 2
0.46198636 0.79760981 -0.17157389 57
0.4698098 0.81079054 -0.14219849 44
0.48461008 0.83599621 -0.11378586 15
0.46646726 0.80437469 -0.07800439 33
0.50027871 0.86233211 -0.050075192 10
1.9138243 3.2975397 -0.065882832 17
1.9205161 3.3077397 1.0139097 39
1.920578 3.3065174 0.87327415 39
1.9205126 3.3050764 0.73490822 49
1.9204108 3.3035736 0.5984838 38
1.925339 3.3107216 0.46487913 47
1.9228947 3.305191 0.33053109 41
1.9256023 3.308516 0.19795349 47
1.9234635 3.3035147 0.065396853 51
1.9396091 3.324569 -1.020376 20
0.46379498 0.79464489 -0.20342679 2
0.46476772 0.79599226 -0.17157389 57
0.47263709 0.80914557 -0.14219849 45
0.48502141 0.83001477 -0.11317738 17
0.46424466 0.79414129 -0.077132836 38
0.48564076 0.83040905 -0.048249532 19
1.9303721 3.299469 -0.066057354 15
1.9344904 3.3051844 1.015203 40
1.9370319 3.3082018 0.87552196 38
1.9369992 3.3068228 0.73681456 52
1.9369243 3.3053715 0.6000464 39
1.9419038 3.3125436 0.46609607 43
1.9394599 3.3070519 0.33140093 43
1.9396663 3.3060811 0.19821431 42
1.940044 3.3054032 0.065569632 47
1.9389601 3.296962 -1.0139097 38
0.4838599 0.82241541 -0.21129413 2
0.46754339 0.79436517 -0.17157389 57
0.47545868 0.80749083 -0.14219849 44
0.48539692 0.82404041 -0.11256889 13
0.46701393 0.79251593 -0.077132836 38
0.47332206 0.80290037 -0.046684686 26
1.946957 3.3013227 -0.066231877 15
1.9509244 3.306731 1.0177895 39
1.9510442 3.3056157 0.87664586 37
1.9535216 3.3084943 0.73872095 44
1.9509621 3.3028426 0.60082769 38
1.9559796 3.3100173 0.46670455 42
1.9535266 3.3045495 0.33183581 40
1.9562783 3.3078861 0.19873592 42
1.9541159 3.3029137 0.065656021 44
1.7534209 2.9577992 -0.91044956 3
nan nan nan 0
0.47031343 0.79272825 -0.17157389 51
0.47827441 0.80582625 -0.14219849 43
0.48573667 0.81807375 -0.11196041 13
0.46723366 0.78659844 -0.076697052 42
0.48377404 0.81412083 -0.047467109 34
1.9635779 3.3031011 -0.066406399 16
1.9673926 3.3082035 1.020376 39
1.9675531 3.3071592 0.87889361 35
1.967569 3.3058729 0.73967409 53
1.9675324 3.3044991 0.60239035 39
1.9726013 3.3116972 0.46792153 49
1.9701493 3.3062682 0.33270565 43
1.9703697 3.305326 0.19899672 49
1.9707546 3.3046598 0.0658288 49
nan nan nan 0
nan nan nan 0
0.47307768 0.79108179 -0.17157389 46
0.48108438 0.80415189 -0.14219849 41
0.48604068 0.81211478 -0.11135194 11
0.46997657 0.78496271 -0.076697052 39
0.48404717 0.80814368 -0.047206301 36
1.9776654 3.3005152 -0.066493668 16
1.9838948 3.3096011 1.0229626 40
1.9815909 3.3044496 0.88001758 37
1.9841465 3.3074024 0.74158049 47
1.984138 3.3060799 0.60395294 37
1.9892584 3.3133011 0.4691385 43
1.984243 3.3036411 0.33314055 48
1.9870387 3.3069878 0.19951834 47
1.9848535 3.3020456 0.065915182 55
1.9584274 3.2516527 -1.0061502 53
nan nan nan 0
0.47583619 0.78942561 -0.17157389 46
0.48388845 0.80246764 -0.14219849 40
0.4888725 0.81041324 -0.11135194 9
0.47271374 0.78331739 -0.076697052 43
0.48944584 0.81072366 -0.047467109 37
1.9943435 3.3021502 -0.06666819 16
2.0004306 3.3109233 1.0255491 48
1.9981538 3.3058515 0.88226539 35
2.0007586 3.3088567 0.74348688 48
1.9982224 3.3033595 0.60473424 38
2.003381 3.3105829 0.46974695 40
2.000922 3.3052166 0.33401036 46
2.0037434 3.3085737 0.20003995 52
2.0015488 3.3036482 0.066087961 49
1.9622469 3.2324109 -1.0022705 34
nan nan nan 0
0.47858891 0.78775978 -0.17157389 43
0.48668662 0.80077368 -0.14219849 38
0.49169838 0.80870181 -0.11135194 8
0.47544515 0.78166252 -0.076697052 40
0.49227282 0.80901021 -0.047467109 38
2.0084574 3.2994392 -0.066755451 17
2.014488 3.3080459 1.0268424 48
2.0147507 3.3071783 0.8845132 38
2.0148513 3.3060439 0.74444008 48
2.0148826 3.3047976 0.6062969 39
2.0200937 3.3120434 0.47096393 40
2.0176363 3.3067162 0.3348802 40
2.0178819 3.3058212 0.20030077 54
2.0182791 3.3051746 0.06626074 49
1.892855 3.0937049 -0.96088642 41
nan nan nan 0
0.48389885 0.79027021 -0.17252707 37
0.48689917 0.79485863 -0.14141718 36
0.49451828 0.80698049 -0.11135194 7
0.47817078 0.77999818 -0.076697052 37
0.49509376 0.80728692 -0.047467109 35
2.0251908 3.3009303 -0.066929974 17
2.031076 3.3092265 1.0294288 40
2.028832 3.3042769 0.88563704 37
2.031517 3.3073552 0.74634641 51
2.0315776 3.3061595 0.60785949 38
2.0368402 3.3134279 0.47218087 40
2.034385 3.3081391 0.33575001 42
2.034642 3.3072631 0.20082238 50
2.0324244 3.302367 0.066347137 51
1.9061779 3.0911899 -0.96217966 73
nan nan nan 0
0.48665449 0.7885763 -0.17252707 35
0.48967084 0.79315424 -0.14141718 35
0.49733216 0.80524945 -0.11135194 8
0.4808906 0.77832431 -0.076697052 34
0.49790874 0.80555385 -0.047467109 38
2.0393302 3.2980931 -0.067017235 18
2.0476966 3.3103318 1.0320153 39
2.0454812 3.3054607 0.88788486 36
2.0482166 3.3085904 0.74825281 48
2.048306 3.3074448 0.60942209 37
2.0510075 3.3105166 0.47278938 40
2.0511682 3.3094852 0.33661982 43
2.0514362 3.3086278 0.201344 49
2.0492096 3.3037491 0.066519916 53
1.9042094 3.0640061 -0.95571339 14
nan nan nan 0
0.4894042 0.7868728 -0.17252707 33
0.49243647 0.79144013 -0.14141718 32
0.50014001 0.80350846 -0.11135194 7
0.48623738 0.78086919 -0.077132836 33
0.50071758 0.80381095 -0.047467109 37
2.0561185 3.2994401 -0.067191757 18
2.0617945 3.3072622 1.0333085 39
2.0595849 3.3024344 0.88900882 35
2.0623512 3.3055847 0.74920601 43
2.0624537 3.3044646 0.61020344 38
2.0678079 3.3117564 0.47400633 40
2.0679855 3.3107545 0.33748963 45
2.068265 3.3099158 0.20186561 40
2.0660293 3.3050542 0.066692695 53
1.8995107 3.0327811 -0.94795388 12
nan nan nan 0
0.49214789 0.78515965 -0.17252707 28
0.49781972 0.79390043 -0.14219849 30
0.50294173 0.80175775 -0.11135194 7
0.48896015 0.77916718 -0.077132836 31
0.50352037 0.80205822 -0.047467109 36
2.0729406 3.30071 -0.067366287 18
2.0784652 3.3082244 1.0358951 40
2.0762854 3.3034751 0.89125663 35
2.0791025 3.3066759 0.75111234 51
2.0792348 3.3056061 0.61176604 36
2.0846417 3.3129189 0.4752233 44
2.0848367 3.3119464 0.33835948 49
2.0824668 3.3069017 0.20212643 56
2.0828829 3.306282 0.066865474 51
1.9126635 3.0302165 -0.94924712 15
1.9323281 3.0601871 -0.82607013 17
0.49750692 0.78758669 -0.17348027 22
0.50322616 0.79633266 -0.1429798 25
0.50838923 0.80419225 -0.11196041 7
0.49167702 0.77745563 -0.077132836 30
0.50898653 0.80451524 -0.047727916 37
2.0897968 3.3019023 -0.06754081 20
2.0951676 3.3091102 1.0384815 40
2.0904112 3.3003232 0.89238054 37
2.0958865 3.3076906 0.75301874 46
2.0960488 3.30667 0.6133287 38
2.1015091 3.3140044 0.47644025 51
2.1017213 3.313061 0.33922929 43
2.0993485 3.308044 0.20264804 42
2.0997701 3.3074324 0.067038253 45
1.9465594 3.0601988 -0.96088642 22
1.9299206 3.0328712 -0.8204506 21
0.50552469 0.79412633 -0.17538664 15
0.50865555 0.79873693 -0.14376111 20
0.51919293 0.81496954 -0.11378586 7
0.49438781 0.7757346 -0.077132836 28
0.51179177 0.80273366 -0.047727916 36
2.1039982 3.2988029 -0.067628071 24
2.111902 3.3099203 1.0410681 39
2.1071613 3.3012199 0.89462835 35
2.1127028 3.3086283 0.75492513 47
2.1128955 3.3076575 0.61489129 37
2.1184089 3.3150125 0.47765723 56
2.1186392 3.3140981 0.3400991 41
2.1162634 3.3091087 0.20316966 49
2.1166911 3.3085051 0.067211032 49
1.9650491 3.0655842 -0.9647662 50
1.951015 3.0425215 -0.82494622 16
1.9897672 3.1017618 -0.70821887 22
0.51677519 0.80526924 -0.14532374 18
0.53544015 0.83403367 -0.11682826 7
0.49978432 0.7781952 -0.077568613 27
0.5172897 0.80514312 -0.047988724 37
2.1263125 3.3082602 -0.067977123 29
2.1286669 3.3106532 1.0436546 47
2.1239433 3.3020394 0.89687616 35
2.1268952 3.305361 0.75587833 47
2.1297748 3.3085668 0.61645389 37
2.1353412 3.3159425 0.47887418 52
2.1355896 3.315057 0.34096891 41
2.1332109 3.3100955 0.20369127 49
2.1336448 3.3094997 0.067383811 49
1.9914619 3.0830486 -0.97252572 54
1.9642677 3.0397844 -0.82607013 16
0.52437943 0.81118804 -0.1801526 5
0.52762824 0.81590134 -0.14766768 17
0.5518266 0.85299402 -0.11987066 8
0.50249761 0.77644593 -0.077568613 25
0.52009708 0.80333257 -0.047988724 37
2.1459999 3.3134055 -0.068238907 30
2.145463 3.3113093 1.046241 40
2.1434062 3.3068705 0.90024787 36
2.1437609 3.3061533 0.75778466 46
2.1439984 3.3052557 0.61723518 37
2.1523063 3.3167949 0.48009112 51
2.1498606 3.3117602 0.34140384 39
2.1501915 3.3110044 0.2042129 42
2.1506307 3.310416 0.06755659 49
2.0101156 3.088222 -0.97640544 54
1.9801837 3.041075 -0.82831794 16
2.0113728 3.0877953 -0.70821887 36
0.53856182 0.82646745 -0.1500116 17
0.56835186 0.87185001 -0.12291307 10
0.50792569 0.77885932 -0.07800439 23
0.5256263 0.80569422 -0.048249532 36
2.1602855 3.3100812 -0.068326168 16
2.1622889 3.3118885 1.0488275 38
2.1602647 3.3075264 0.90249562 35
2.1606579 3.3068681 0.75969106 48
2.1609268 3.3060193 0.61879784 38
2.1693029 3.317569 0.4813081 45
2.1668611 3.3125725 0.34227365 43
2.16447 3.307657 0.2044737 42
2.1654887 3.3066938 0.067642979 47
2.0267205 3.0889103 -0.97899193 55
1.9966633 3.0419428 -0.83056575 17
2.0253706 3.0845053 -0.70917213 38
0.54972154 0.83687103 -0.15235552 13
0.57971978 0.88220346 -0.12473851 11
0.51624924 0.78531677 -0.078875944 21
0.53131932 0.80793422 -0.048510343 36
nan nan nan 0
2.179724 3.31201 1.0514141 43
2.1777313 3.3077254 0.90474349 38
2.1781635 3.3071249 0.76159745 49
2.1784642 3.306325 0.62036049 38
2.1841788 3.3137395 0.48191655 42
2.1817296 3.3087666 0.34270856 43
2.1820774 3.3080375 0.20499532 47
2.1825252 3.3074601 0.067815758 53
2.0428174 3.0898745 -0.98157841 52
2.0126448 3.043082 -0.83281356 16
2.0415421 3.0856037 -0.71107846 39
0.55809098 0.84318346 -0.15391815 16
0.58827555 0.88845038 -0.12595546 11
0.52173793 0.78766257 -0.079311721 16
0.53413635 0.80607462 -0.048510343 36
nan nan nan 0
2.19661 3.3124316 1.0540005 43
2.1946507 3.308223 0.90699124 35
2.1978362 3.3117702 0.76445699 45
2.1927233 3.3028147 0.62114179 38
2.2012239 3.3143635 0.48313355 40
2.1987791 3.3094285 0.34357837 39
2.1991391 3.3087175 0.20551693 44
2.1995928 3.3081474 0.067988537 47
2.0589461 3.0907643 -0.98416495 56
2.0286586 3.0441468 -0.83506137 17
2.0577459 3.0866263 -0.71298486 40
0.5692513 0.85355633 -0.15626208 14
0.59412754 0.89051986 -0.12656395 12
0.5300144 0.79412246 -0.080183282 11
0.53971946 0.80835789 -0.04877115 34
0.55714858 0.83414692 -0.016841572 26
2.213526 3.3127756 1.0565871 39
2.2116001 3.3086433 0.90923911 35
2.2148402 3.3122387 0.76636338 41
2.2097309 3.3033504 0.62270439 38
2.2182999 3.3149085 0.4843505 40
2.2158597 3.3100116 0.34444818 40
2.2162323 3.3093185 0.20603855 45
2.216692 3.3087556 0.068161316 47
2.0751061 3.0915787 -0.98675144 57
2.0447042 3.0451362 -0.83730918 17
2.0739813 3.0875733 -0.71489125 39
0.5777362 0.85976219 -0.15782471 16
0.5972324 0.88844061 -0.12656395 12
0.53834236 0.80053419 -0.081054844 10
0.54532492 0.8106119 -0.049031962 18
0.56005692 0.83219695 -0.016841572 21
2.2304707 3.3130417 1.0591736 39
2.2285793 3.3089852 0.91148686 35
2.2318733 3.3126283 0.76826972 38
2.2267685 3.3038073 0.62426698 37
2.2354066 3.3153751 0.48556748 42
2.2329712 3.3105154 0.34531802 44
2.2333562 3.3098402 0.20656016 47
2.2310252 3.3051417 0.068247706 44
2.0885906 3.0883176 -0.98804474 51
2.0607812 3.0460513 -0.83955699 14
2.0902483 3.0884449 -0.71679759 39
0.58627141 0.86591917 -0.15938732 17
0.60589617 0.89456856 -0.1277809 9
0.5467214 0.80689728 -0.081926398 5
0.55375421 0.81696981 -0.049553577 9
0.56576407 0.83437473 -0.016928833 20
2.2474444 3.3132303 1.0617601 44
2.2455876 3.3092489 0.91373473 34
2.2489364 3.3129394 0.77017617 39
2.2438364 3.3041854 0.6258297 37
2.2497547 3.3116567 0.48617592 39
2.2473128 3.3068204 0.34575292 39
2.2505105 3.3102829 0.20708179 49
2.2481716 3.3056014 0.068420485 42
2.1047974 3.0889909 -0.99063122 54
2.0768898 3.0468905 -0.8418048 14
2.1065469 3.0892398 -0.71870399 40
0.59763944 0.87610668 -0.16173126 17
0.60062289 0.88015026 -0.12595546 6
0.5551514 0.81321156 -0.082797959 4
0.56223452 0.82327867 -0.050075192 8
nan nan nan 0
2.2644463 3.3133397 1.0643466 39
2.2626245 3.3094337 0.91598248 35
2.2660289 3.3131714 0.77208251 40
2.2609341 3.3044844 0.62739223 38
2.2669072 3.3119743 0.48739293 45
2.2644703 3.3071756 0.34662274 45
2.2676952 3.3106461 0.20760341 42
2.2653484 3.3059819 0.068593264 49
2.1183009 3.0856068 -0.99192441 51
2.093029 3.0476544 -0.84405261 14
2.1228762 3.0899591 -0.72061038 39
0.59789681 0.86994517 -0.16094995 15
0.59806812 0.86986923 -0.12473851 3
0.56363201 0.81947666 -0.083669513 4
0.56793523 0.82542467 -0.050336 8
0.56023735 0.81393254 -0.016579784 4
2.2814767 3.3133714 1.0669332 44
2.2796905 3.30954 0.91823035 36
2.2831502 3.3133252 0.7739889 46
2.2780609 3.3047044 0.62895489 38
2.2840891 3.312212 0.48860985 44
2.2816577 3.3074512 0.34749258 47
2.2849097 3.3109293 0.20812503 54
2.2825551 3.3062823 0.068766043 51
2.1318061 3.082166 -0.99321771 54
2.1091988 3.0483427 -0.84630042 13
2.1392362 3.0906017 -0.72251672 39
0.60655266 0.87597322 -0.16251256 11
0.60957879 0.88001537 -0.12656395 2
0.57216305 0.82569236 -0.084541067 6
0.57365763 0.82754076 -0.050596807 9
2.3008633 3.3179169 -0.069809623 39
2.2985349 3.3133242 1.0695195 39
2.2967846 3.3095677 0.92047811 32
2.3003004 3.3133988 0.77589524 39
2.2952166 3.3048451 0.63051748 37
2.3013003 3.312371 0.48982683 40
2.2988749 3.3076475 0.34836239 41
2.3021543 3.3111324 0.20864664 49
2.2997913 3.3065028 0.068938822 42
2.150836 3.0865939 -0.99709749 49
2.1253989 3.0489554 -0.84854823 13
2.1556265 3.0911677 -0.72442311 39
0.60960662 0.87385064 -0.16251256 7
nan nan nan 0
0.58074427 0.83185852 -0.085412629 9
0.57654285 0.82553327 -0.050596807 12
2.318157 3.3180611 -0.069984145 48
2.3156199 3.3131981 1.0721061 39
2.3139064 3.3095164 0.92272598 36
2.3174787 3.3133931 0.77780163 38
2.3152323 3.3089521 0.63286138 37
2.3185401 3.3124485 0.49104378 40
2.3161204 3.3077629 0.3492322 39
2.3165629 3.3071659 0.20890746 44
2.3170569 3.306643 0.069111601 45
2.1782479 3.1027853 -1.0048569 39
2.1444287 3.053479 -0.85191995 11
2.1720464 3.0916567 -0.72632951 40
nan nan nan 0
nan nan nan 0
0.58650994 0.83390039 -0.085848406 12
0.57942098 0.82351577 -0.050596807 18
2.3326027 3.3140373 -0.070071407 61
2.3327324 3.3129933 1.0746926 40
2.3282504 3.3054023 0.92384988 36
2.3346848 3.3133082 0.77970797 40
2.3324592 3.3089235 0.63442403 38
2.335809 3.3124475 0.49226075 44
2.333395 3.3077984 0.35010204 40
2.3338506 3.3072186 0.20942906 45
2.3343513 3.3067031 0.069284372 42
2.250421 3.181915 -1.0333085 42
2.1691442 3.065861 -0.85753942 9
2.1856608 3.088062 -0.72728264 40
0.62425375 0.88166523 -0.16485649 2
2.2566857 3.1860523 -0.47400633 16
0.60093606 0.84810466 -0.087591521 14
0.57940453 0.81741458 -0.050336 17
2.3528314 3.3181088 -0.07033319 71
2.3498714 3.3127091 1.0772791 40
2.3454132 3.3052013 0.92609763 35
2.3519187 3.3131433 0.78161442 37
2.3497143 3.3088148 0.63598663 39
2.3531053 3.3123653 0.4934777 40
2.3506978 3.3077533 0.35097185 43
2.3511674 3.3071914 0.20995069 40
2.3516746 3.3066826 0.069457158 42
2.3147647 3.2487772 -1.0578803 49
2.1911442 3.0741403 -0.86203504 16
2.202126 3.088407 -0.72918904 40
2.0526474 2.8777056 -0.55316776 27
2.2677934 3.1781554 -0.47400633 11
0.60968065 0.85410994 -0.088463083 11
0.58225435 0.81538707 -0.050336 16
2.3702116 3.3180118 -0.07050772 79
2.3698449 3.3162749 1.0811589 39
2.3626032 3.3049214 0.9283455 34
2.3691797 3.3128984 0.78352082 39
2.3669968 3.3086255 0.63754928 40
2.3704302 3.3122029 0.49469468 44
2.3680294 3.3076282 0.35184166 45
2.3714194 3.3111422 0.2107331 39
2.3719375 3.3106451 0.069716327 47
2.3542547 3.2799146 -1.0708128 57
2.2160699 3.0862606 -0.86765462 27
2.2186203 3.0886741 -0.73109537 40
2.06268 2.870523 -0.55316776 13
2.26439 3.1500714 -0.47096393 11
0.61265832 0.85197651 -0.088463083 7
0.58218122 0.80929637 -0.050075192 12
2.3876193 3.3178337 -0.070682235 81
2.3870504 3.3158224 1.0837454 37
2.3798192 3.3045609 0.93059325 35
2.3864675 3.3125732 0.78542715 43
2.3843064 3.3083558 0.63911188 39
2.3877819 3.3119597 0.49591163 40
2.3853877 3.3074217 0.35271147 48
2.3888056 3.3109426 0.2112547 51
2.3893311 3.3104529 0.069889106 51
2.3770096 3.2873323 -1.0759858 64
2.2353961 3.0903492 -0.87102634 36
2.2351432 3.0888638 -0.73300183 39
2.0784793 2.8713064 -0.55473042 15
2.2084239 3.0496972 -0.45696887 13
2.3221426 3.2055581 -0.34295785 8
2.4133151 3.3301916 -0.21281958 9
2.4050546 3.3175738 -0.070856765 79
2.4042811 3.3152893 1.0863318 38
2.3999226 3.3080642 0.93396497 33
2.4037819 3.3121674 0.78733355 42
2.4016433 3.308006 0.64067453 37
2.4051611 3.3116357 0.49712861 40
2.4027741 3.3071349 0.35358131 38
2.40622 3.3106627 0.21177633 39
2.4067516 3.3101792 0.070061885 44
2.3998444 3.2946305 -1.0811589 63
2.2490389 3.0864649 -0.87215024 48
2.251694 3.0889759 -0.73490822 39
2.0826697 2.8560531 -0.55316776 10
2.1722593 2.9778192 -0.4472332 15
0.59803808 0.8195138 -0.085412629 2
nan nan nan 0
2.4225168 3.3172328 -0.071031287 79
2.4215374 3.314677 1.0889184 38
2.4172049 3.307534 0.93621284 34
2.4211226 3.3116813 0.78923988 40
2.4190066 3.307575 0.64223719 35
2.4254975 3.3152359 0.49895403 42
2.420187 3.3067658 0.35445109 38
2.423661 3.3103004 0.21229795 42
2.4241998 3.3098245 0.070234664 42
2.4199023 3.2979155 -1.0850385 59
2.2655649 3.0864503 -0.87439805 53
2.2682731 3.0890093 -0.73681456 39
2.1043212 2.8646863 -0.55629301 11
2.1620693 2.9422243 -0.44297382 15
2.3267639 3.165189 -0.34034318 11
2.4276307 3.3011944 -0.21203715 56
2.4400065 3.3168106 -0.071205817 80
2.4388185 3.3139837 1.0915048 36
2.4374006 3.3108463 0.93958449 33
2.4413993 3.3150661 0.79209942 45
2.4393251 3.3110394 0.64458108 35
2.4429438 3.3147392 0.50017101 39
2.4405823 3.3103256 0.35575584 38
2.4411292 3.3098571 0.21281958 45
2.4416747 3.3093879 0.070407443 47
2.4371412 3.2972164 -1.0876251 56
2.2821181 3.0863581 -0.87664586 49
2.2848797 3.0889652 -0.73872095 40
2.1025577 2.8414435 -0.55316776 17
2.1664209 2.9266815 -0.44175684 13
2.3466907 3.1690564 -0.34165052 11
2.448056 3.3047371 -0.21281958 68
2.4575224 3.3163064 -0.071380332 78
2.4561241 3.3132105 1.0940914 37
2.4547474 3.3101454 0.94183236 35
2.4588051 3.3144081 0.79400587 48
2.456754 3.3104355 0.64614367 35
2.4604161 3.3141613 0.50138795 39
2.4580629 3.3097842 0.35662565 35
2.4586229 3.3093317 0.21334118 39
2.4591758 3.3088694 0.070580222 42
2.4544048 3.2964373 -1.0902116 63
2.2957878 3.0822804 -0.87776977 55
2.3015137 3.0888422 -0.74062735 40
2.1390262 2.8697238 -0.56019956 11
2.1766241 2.9191015 -0.44175684 11
2.366673 3.1728232 -0.34295785 12
2.4685349 3.308177 -0.21360199 69
2.4750648 3.3157206 -0.071554862 74
2.473454 3.3123567 1.0966779 39
2.4721181 3.3093629 0.94408011 36
2.4762354 3.313668 0.79591221 43
2.4742086 3.3097508 0.64770633 37
2.4779139 3.3135016 0.50260496 39
2.4785521 3.3131487 0.35793036 37
2.4761436 3.3087251 0.21386281 44
2.4767027 3.3082688 0.070753001 40
2.4745905 3.2994416 -1.0940914 62
2.312381 3.0820425 -0.88001758 51
2.3181744 3.0886409 -0.74253368 39
2.2320566 2.97282 -0.58207625 6
2.1838195 2.9075177 -0.4411484 10
2.3807256 3.168525 -0.34339362 11
2.4830678 3.3035321 -0.21386281 73
2.4926324 3.3150518 -0.071729392 74
2.4937115 3.3152821 1.1005577 40
2.4924431 3.3123922 0.94745183 34
2.4936912 3.3128474 0.7978186 40
2.4916883 3.3089843 0.64926893 36
2.4954371 3.3127596 0.50382185 40
2.4960976 3.3124332 0.3588002 45
2.4936893 3.3080361 0.21438444 45
2.494256 3.3075867 0.07092578 42
2.4919152 3.298491 -1.0966779 61
2.329 3.0817256 -0.88226539 51
2.3348618 3.0883608 -0.74444008 40
2.2543361 2.9807665 -0.5852015 9
2.2029383 2.9117501 -0.44297382 9
2.3977835 3.1681385 -0.34426516 12
2.5036261 3.3067868 -0.21464522 70
2.5102253 3.314301 -0.071903907 74
2.5111022 3.3142567 1.1031442 43
2.5098763 3.3114378 0.94969964 36
2.5111706 3.311945 0.79972494 40
2.5091927 3.3081362 0.65083158 37
2.5129852 3.3119361 0.50503886 39
2.5136676 3.3116348 0.35967001 36
2.5142798 3.3112414 0.21516685 42
2.5118344 3.3068218 0.071098559 45
2.5092635 3.2974594 -1.0992644 57
2.3456452 3.0813301 -0.8845132 52
2.3515754 3.0880015 -0.74634641 39
2.2587416 2.9650221 -0.58363885 11
2.2401617 2.9395685 -0.44845015 6
2.4148672 3.1676722 -0.34513673 12
2.5212097 3.3059683 -0.21516685 69
2.5308759 3.3174424 -0.07216569 73
2.5285163 3.3131502 1.1057307 40
2.527333 3.3104017 0.95194751 35
2.5316541 3.3148615 0.80258459 39
2.5267212 3.3072062 0.65239418 38
2.5335715 3.3149731 0.50686431 40
2.5312634 3.310755 0.36053985 38
2.5318902 3.3103771 0.21568845 40
2.5294375 3.305975 0.071271338 40
2.5295732 3.3001802 -1.1031442 61
2.3652802 3.0847223 -0.88788486 51
2.3713021 3.0914578 -0.74920601 39
2.2660713 2.9532015 -0.58285761 17
2.2836499 2.9750352 -0.45514345 8
2.4319773 3.1671245 -0.3460083 12
2.5418594 3.3090265 -0.21594927 70
2.548533 3.3165162 -0.07234022 69
2.5459526 3.3119617 1.1083171 39
2.5477829 3.3131459 0.95531923 34
2.5491951 3.3137851 0.80449092 40
2.5442741 3.3061938 0.65395683 35
2.551182 3.3139739 0.5080812 39
2.5488827 3.3097916 0.36140963 39
2.5495243 3.3094301 0.21621008 40
2.5501173 3.3090045 0.071530506 42
2.5469806 3.2989764 -1.1057307 62
2.3819897 3.0841591 -0.89013267 51
2.3880801 3.0909297 -0.75111234 39
2.2733459 2.941366 -0.58207625 30
2.2909851 2.9631195 -0.45453495 9
2.4521596 3.1704359 -0.34731564 12
2.5595057 3.308032 -0.2164709 69
2.5662138 3.3155065 -0.072514743 71
2.5663691 3.3145115 1.1121969 38
2.565299 3.3119354 0.95756698 32
2.5667593 3.3126266 0.80639732 40
2.5648758 3.3090024 0.65630072 37
2.5688167 3.3128922 0.50929821 44
2.5695794 3.3126814 0.36271441 39
2.5702441 3.3123446 0.2169925 39
2.5677831 3.3079813 0.071703285 47
2.5673754 3.3015039 -1.1096104 64
2.4017155 3.0873621 -0.89350444 47
2.4048841 3.0903223 -0.75301874 39
2.2775319 2.9256184 -0.58051366 31
2.3043637 2.9590199 -0.45514345 9
2.4693339 3.1697159 -0.34818718 11
2.5771756 3.3069544 -0.2169925 69
2.5808451 3.3104713 -0.072602004 77
2.5838637 3.3131499 1.1147834 41
2.5828381 3.3106432 0.95981485 34
2.5873666 3.3152544 0.80925685 43
2.582489 3.3078146 0.65786338 38
2.5895298 3.3156393 0.5111236 40
2.5872605 3.3115423 0.36358419 42
2.5879405 3.3112214 0.21751413 44
2.5885522 3.3108127 0.071962453 49
2.5848405 3.3001263 -1.1121969 63
2.4184875 3.0866299 -0.89575225 52
2.4217124 3.0896347 -0.75492513 39
2.2785883 2.9059918 -0.5781697 33
2.3208044 2.9587679 -0.4563604 6
2.4865329 3.1689141 -0.34905878 11
2.5948699 3.305794 -0.21751413 68
2.5923851 3.3014421 -0.072602004 64
2.6043637 3.3155053 1.1186632 40
2.6003993 3.3092692 0.9620626 33
2.60499 3.3139207 0.81116331 39
2.6031775 3.3104258 0.66020727 37
2.6072245 3.3143814 0.51234061 39
2.6080451 3.314234 0.36488891 35
2.6087484 3.3139377 0.21829654 39
2.6062791 3.3096118 0.072135225 39
2.6053188 3.3024592 -1.1160767 63
2.438302 3.0896425 -0.89912397 48
2.4416068 3.09272 -0.75778466 39
2.2764752 2.8825176 -0.57504445 33
2.3372712 2.9584372 -0.45757735 4
2.503756 3.168031 -0.34993032 11
2.6094894 3.3006322 -0.21777491 13
2.6069949 3.2962942 -0.072689272 123
2.6219146 3.3139699 1.1212497 37
2.6210058 3.3116331 0.96543437 35
2.6256821 3.3163519 0.81402284 43
2.6239159 3.312933 0.66255122 36
2.6280239 3.3169298 0.51416606 40
2.6257856 3.3129172 0.36575875 36
2.6265044 3.3126359 0.21881814 39
2.627136 3.3122451 0.072394401 42
2.6228402 3.3009081 -1.1186632 63
2.4551353 3.0887401 -0.90137172 53
2.458497 3.0918622 -0.75969106 39
2.2773004 2.8629587 -0.57270056 15
2.3692148 2.9774444 -0.4618367 15
2.5210035 3.1670663 -0.35080189 11
2.6241057 3.2954097 -0.21803573 26
2.6184852 3.2871742 -0.072689272 120
2.6424963 3.316129 1.1251295 37
2.638623 3.3100832 0.96768212 34
2.6433625 3.3148408 0.81592917 38
2.641624 3.3114753 0.66411388 37
2.6488721 3.3193729 0.51599145 38
2.6466568 3.3154097 0.36706346 35
2.6473992 3.3151531 0.21960059 42
2.6449223 3.3108659 0.07256718 40
2.6403821 3.2992744 -1.1212497 63
2.4719915 3.0877581 -0.90361959 49
2.4754112 3.0909238 -0.76159745 40
2.2749288 2.8395753 -0.56957531 9
2.3733864 2.961411 -0.46061975 11
2.5413907 3.1699057 -0.35210919 11
2.6387169 3.2901251 -0.21829654 27
2.6299436 3.2780139 -0.072689272 108
2.6601019 3.3144183 1.1277159 38
2.659312 3.3122494 0.97105384 32
2.6641381 3.3170745 0.81878877 39
2.6624467 3.3137836 0.66645777 36
2.6666613 3.3178432 0.51720846 40
2.6644557 3.3139148 0.3679333 37
2.6652141 3.3136733 0.22012219 39
2.6658652 3.3132985 0.072826341 40
2.6609757 3.3013189 -1.1251295 64
2.4888711 3.0866957 -0.90586734 51
2.4954302 3.0937252 -0.76445699 39
2.2724218 2.8162432 -0.56645006 7
2.3837092 2.9531083 -0.46061975 13
2.6087663 3.2307711 -0.35995322 27
2.6501856 3.280894 -0.21829654 26
2.6445124 3.272702 -0.072776534 106
2.6807637 3.3163807 1.1315957 39
2.680048 3.3143125 0.97442561 33
2.6849613 3.3192029 0.8216483 39
2.6802108 3.3121479 0.66802043 36
2.6875937 3.3200867 0.51903391 39
2.6854112 3.3162069 0.36923802 35
2.6830509 3.3121097 0.22064382 39
2.6837096 3.3117409 0.072999127 40
2.6785715 3.29951 -1.1277159 68
2.5088449 3.0893354 -0.90923911 51
2.5093091 3.0888052 -0.76541018 39
2.2915823 2.8197916 -0.56879395 9
2.390872 2.9409187 -0.46001127 12
2.670311 3.2834747 -0.36692569 42
2.6647732 3.275497 -0.21855736 26
2.6590755 3.2673285 -0.072863787 108
2.6984224 3.3144941 1.1341822 37
2.6977539 3.3124921 0.97667336 34
2.7027314 3.317421 0.82355464 45
2.7011161 3.3142569 0.67036432 36
2.7054393 3.3183787 0.52025086 39
2.7032673 3.3145332 0.37010786 36
2.7009087 3.3104615 0.22116543 39
2.7015753 3.3100989 0.073171906 42
2.699244 3.301357 -1.1315957 69
2.5257821 3.0881016 -0.91148686 50
2.5294001 3.0914237 -0.76826972 39
2.3076675 2.8194187 -0.57035661 9
2.4011233 2.932555 -0.46001127 11
2.7038498 3.3011072 -0.36997613 58
2.6761906 3.2661753 -0.21855736 26
2.6736333 3.261893 -0.072951056 106
2.7191629 3.3162591 1.138062 37
2.7185702 3.3143559 0.98004514 32
2.7236354 3.3193502 0.82641429 39
2.718935 3.3124423 0.67192692 37
2.7233047 3.3165851 0.5214678 38
2.7243054 3.3166234 0.37141258 34
2.7219582 3.3125873 0.22194786 39
2.7194622 3.3083723 0.073344685 40
2.7199624 3.3031001 -1.1354754 67
2.5427418 3.0867872 -0.91373473 47
2.5464187 3.0901515 -0.77017617 36
2.3206363 2.8151567 -0.57113791 13
2.4081879 2.9203269 -0.4594028 9
2.7216959 3.2993336 -0.3708477 60
2.690753 3.2606642 -0.21881814 27
2.6850033 3.2525403 -0.072951056 102
2.7368731 3.3141959 1.1406485 40
2.7363284 3.3123581 0.98229289 34
2.7414589 3.3173895 0.82832062 39
2.7399213 3.3143506 0.67427093 36
2.7443533 3.3185322 0.5232932 39
2.7422159 3.3147697 0.37228239 33
2.7398715 3.3107588 0.22246948 39
2.7405581 3.3104119 0.073603854 39
2.7191424 3.2787147 -1.1303024 15
2.5628335 3.0891414 -0.91710645 44
2.4129977 2.9075022 -0.72632951 3
2.3336034 2.8108389 -0.5719192 19
2.4151962 2.9080853 -0.45879433 9
2.7395618 3.2974756 -0.37171924 62
2.7021182 3.2512519 -0.21881814 25
2.6995366 3.2469923 -0.073038317 100
2.7576902 3.315762 1.1445282 37
2.7572217 3.3140223 0.98566461 31
2.7624416 3.3191178 0.83118021 37
2.7577934 3.3123569 0.67583346 38
2.7622728 3.3165596 0.5245102 38
2.7633355 3.3166583 0.37358713 35
2.7610023 3.3126817 0.22325189 39
2.7584994 3.3085051 0.073776633 39
2.2723382 2.7205794 -0.93890113 6
2.576725 3.0839152 -0.91823035 48
2.4483142 2.9291899 -0.73395497 2
2.3497365 2.8102534 -0.5734818 28
2.4221487 2.8958299 -0.45818582 9
2.7606447 3.2993529 -0.37302655 59
2.716656 3.2456291 -0.21907896 23
2.7108541 3.2375493 -0.073038317 100
2.7754505 3.3135211 1.1471148 40
2.7750316 3.3118467 0.98791248 37
2.7803168 3.3169782 0.83308655 47
2.7788584 3.3140631 0.67817742 37
2.7834005 3.3183038 0.52633566 40
2.7845013 3.3184392 0.37489185 42
2.7821796 3.3144977 0.22403434 44
2.7796762 3.3103416 0.074035801 45
nan nan nan 0
2.5968847 3.0860856 -0.92160207 49
2.5817995 3.0670717 -0.77112937 38
2.3627129 2.8058119 -0.57426316 30
2.429045 2.8835618 -0.45757735 8
2.7817738 3.3011234 -0.37433392 55
2.7311869 3.2399442 -0.21933977 19
2.7253618 3.231889 -0.073125578 100
2.7963424 3.314888 1.1509944 47
2.7960014 3.3133104 0.99128413 32
2.8013766 3.3185046 0.83594608 38
2.7999685 3.3156624 0.68052137 36
2.8045745 3.319941 0.52816105 38
2.8057127 3.3201125 0.37619656 34
2.8001792 3.3123918 0.22455594 39
2.8008986 3.3120701 0.074294962 39
nan nan nan 0
2.6139414 3.0844357 -0.92384988 20
2.6178813 3.0879927 -0.77875489 38
2.3820753 2.808847 -0.57660705 35
2.4294639 2.8637121 -0.4557519 7
2.802949 3.3027859 -0.37564126 57
2.74248 3.230391 -0.21933977 18
2.7366264 3.2223561 -0.073125578 98
2.8172781 3.3161492 1.1548742 39
2.8138602 3.3109553 0.993532 34
2.8224809 3.3199244 0.83880574 40
2.8179245 3.3133926 0.68208396 38
2.822578 3.3176908 0.52937806 39
2.8269699 3.3216784 0.37750128 32
2.821435 3.314003 0.22533835 39
2.8227456 3.3131986 0.074554138 39
nan nan nan 0
nan nan nan 0
2.6451204 3.0970383 -0.78352082 39
2.3987703 2.8076065 -0.5781697 36
2.4334948 2.8472431 -0.45453495 7
2.8247459 3.3038478 -0.37694857 58
2.7575467 3.224112 -0.21960059 17
2.7516685 3.2161026 -0.07321284 96
2.8388352 3.3168092 1.158754 38
2.8354824 3.311722 0.99690366 37
2.8410158 3.3170125 0.84071207 44
2.8396895 3.3142929 0.68442798 36
2.8444085 3.3186283 0.53120351 39
2.8456101 3.3188577 0.37837112 32
2.8433156 3.3150103 0.2261208 39
2.8440599 3.3147075 0.074813306 40
2.8268859 3.2888799 -1.1509944 29
2.3278344 2.7073126 -0.81483108 9
2.6623166 3.0952284 -0.78542715 39
2.4182193 2.810447 -0.58051366 38
2.433706 2.8274474 -0.45270953 6
2.8427615 3.3015168 -0.37782016 54
2.7720428 3.2182498 -0.21986137 18
2.7661414 3.2102652 -0.073300101 96
2.8567023 3.3141963 1.1613405 36
2.85657 3.3128734 1.0002754 32
2.8621945 3.3182251 0.8435716 36
2.8609202 3.3155777 0.68677187 35
2.8657041 3.3199499 0.53302896 38
2.8669436 3.3202143 0.37967584 35
2.8646612 3.316401 0.22690322 38
2.8654187 3.3161075 0.075072475 39
2.8446715 3.2862959 -1.153581 33
2.668956 3.0822141 -0.93171722 39
2.6795318 3.0933363 -0.78733355 39
2.4312491 2.8057213 -0.58129495 39
2.4370594 2.8114347 -0.45149252 6
2.864058 3.3028631 -0.37912747 60
2.7832596 3.208554 -0.21986137 17
2.7773304 3.2005899 -0.073300101 95
2.8777523 3.3151467 1.1652203 38
2.8777001 3.3139179 1.0036471 32
2.8834169 3.3193307 0.84643126 37
2.8789546 3.3130262 0.68833447 35
2.8837867 3.3174174 0.53424591 39
2.8883216 3.3214629 0.38098061 33
2.8827744 3.3139157 0.22742485 38
2.8835402 3.3136282 0.075245254 40
2.8624728 3.2836273 -1.1561675 33
2.6957092 3.0912385 -0.93733674 43
2.6967664 3.0913618 -0.78923988 39
2.4540167 2.8121011 -0.5844202 38
2.4435945 2.7991717 -0.45088407 6
2.8821228 3.3003492 -0.37999907 60
2.7977278 3.2025795 -0.22012219 16
2.7917755 3.1946402 -0.073387362 97
2.8988433 3.31599 1.1691 36
2.8988719 3.3148553 1.0070188 34
2.9046807 3.3203278 0.84929079 38
2.9002593 3.3141062 0.69067842 36
2.9051559 3.3185329 0.5360713 38
2.9064612 3.318855 0.38185039 33
2.9041953 3.3151002 0.22820726 39
2.904974 3.3148215 0.075504422 39
nan nan nan 0
2.6839786 3.0561841 -0.92946935 6
2.71402 3.0893042 -0.79114634 39
2.5029392 2.8480332 -0.5937959 18
2.4533505 2.7906251 -0.45088407 5
2.9034936 3.3014891 -0.38130638 58
2.8088901 3.1927941 -0.22012219 16
2.8029096 3.1848755 -0.073387362 96
2.9199748 3.3167262 1.1729797 35
2.9200854 3.3156848 1.0103905 31
2.925987 3.3212173 0.85215032 38
2.9216053 3.3150771 0.69302231 32
2.9265683 3.3195398 0.53789681 37
2.9279122 3.3198962 0.38315511 30
2.9256599 3.3161755 0.22898968 39
2.9264512 3.3159056 0.075763591 39
2.2327113 2.5253968 -0.892344 9
2.3008535 2.6015565 -0.79235297 9
2.7312918 3.0871637 -0.79305267 39
2.5521421 2.8836572 -0.60317165 13
2.4630764 2.7820442 -0.45088407 7
2.9249074 3.3025208 -0.38261372 58
2.823329 3.1867075 -0.220383 16
2.8173258 3.1788137 -0.073474631 91
2.9411471 3.3173554 1.1768595 36
2.9413397 3.3164067 1.0137622 30
2.9473352 3.3219986 0.85500997 38
2.9429941 3.3159394 0.69536626 34
2.9480226 3.3204379 0.5397222 37
2.9460988 3.3171046 0.38402495 34
2.9438503 3.3134084 0.22951131 37
2.9479718 3.3168807 0.076022759 39
2.2672067 2.5464461 -0.90269005 15
2.2932692 2.5757186 -0.78673345 10
2.7480433 3.0854201 -0.79495907 38
2.5682609 2.8825529 -0.60473424 12
2.4755907 2.777566 -0.45149252 6
2.9457872 3.3039563 -0.38392103 58
2.8372047 3.1810536 -0.22064382 16
2.8278518 3.1694531 -0.073474631 95
2.9617803 3.3183944 1.1807393 37
2.958811 3.3139031 1.01601 30
2.9648743 3.3195276 0.85691625 37
2.9605548 3.3135276 0.69692892 38
2.9656317 3.3180437 0.54093915 42
2.9670424 3.3184564 0.38532966 36
2.964808 3.3147929 0.23029372 39
2.9656215 3.314538 0.076195538 47
nan nan nan 0
2.2957413 2.5604432 -0.78448564 6
2.7653508 3.0831163 -0.7968654 30
2.5717111 2.8662188 -0.60317165 10
2.4852712 2.7689078 -0.45149252 6
2.9639578 3.3010662 -0.3847926 56
2.8482912 3.1711304 -0.22064382 15
2.8422389 3.1632817 -0.073561884 96
2.9830315 3.3188117 1.1846191 38
2.9801331 3.3144233 1.0193818 32
2.9862907 3.320106 0.85977584 36
2.982013 3.3141868 0.69927281 35
2.9871562 3.3187377 0.54276466 39
2.9886067 3.3191838 0.38663438 32
2.9863861 3.3155539 0.23107615 42
2.9872127 3.3153076 0.076454706 39
