# .PCD v0.7 - Point Cloud Data file format
VERSION 0.7
FIELDS x y z intensity
SIZE 4 4 4 4
TYPE F F F F
COUNT 1 1 1 1
WIDTH 1315
HEIGHT 1
VIEWPOINT 0 0 0 1 0 0 0
POINTS 1315
DATA ascii
0.69959277 -1.5690997 -0.029320041 27
0.69581246 -1.5613534 0.4474653 23
0.70346236 -1.5792603 0.38999504 22
0.70630741 -1.5863924 0.32980317 28
0.70225787 -1.5780381 0.26720816 26
0.70132035 -1.5766723 0.20688337 27
0.71165514 -1.6006587 0.14960881 30
0.69482273 -1.5635341 0.087370776 26
0.69131517 -1.5563731 0.028767703 30
0.71797889 -1.6202114 -0.46427754 10
0.70015317 -1.5807303 -0.38999504 12
0.68510038 -1.5474751 -0.32122445 6
0.6949544 -1.5704732 -0.26564553 5
0.68797922 -1.5554441 -0.20384097 3
0.70023453 -1.5838993 -0.14816476 4
0.70365548 -1.5923887 -0.088935629 29
0.69411141 -1.5715321 -0.029320041 29
0.68840742 -1.5593542 0.446172 24
0.69597852 -1.5772489 0.38887113 24
0.69878483 -1.5843573 0.32884994 31
0.69475305 -1.5759608 0.26642683 32
0.69381136 -1.5745691 0.2062749 29
0.70405579 -1.5985746 0.1491739 32
0.68936074 -1.5659499 0.087370776 27
0.68587816 -1.5587767 0.028767703 30
0.70455354 -1.6050178 -0.45910454 23
0.70050377 -1.5965492 -0.39336672 14
0.68363714 -1.558847 -0.32313082 5
0.6973989 -1.590982 -0.26877078 4
0.690512 -1.5760187 -0.2062749 5
0.69470137 -1.5863339 -0.14816476 5
0.69609052 -1.5902611 -0.088674821 33
0.68661761 -1.5693653 -0.02923278 38
0.68296009 -1.5617476 0.446172 34
0.68851733 -1.5752045 0.3877472 35
0.69128501 -1.5822889 0.32789677 39
0.68727136 -1.5738506 0.26564553 41
0.68632549 -1.572433 0.20566641 45
0.69647968 -1.5964569 0.148739 38
0.68189454 -1.5637698 0.087109968 31
0.68043286 -1.5611614 0.028767703 46
0.69509494 -1.5986089 -0.45651805 34
0.6988104 -1.6079211 -0.39561453 14
0.68014717 -1.5657257 -0.32408401 11
0.69970864 -1.6115267 -0.27189603 21
0.69093376 -1.5920774 -0.20810033 5
0.69312418 -1.5978882 -0.14903632 12
0.68854898 -1.5881001 -0.088414013 44
0.6811353 -1.5717525 -0.02923278 70
0.67558473 -1.5596902 0.44487876 57
0.68107891 -1.5731272 0.38662329 41
0.68575764 -1.5846925 0.32789677 45
0.67981279 -1.5717072 0.26486424 52
0.67886323 -1.5702637 0.20505793 59
0.68892694 -1.594306 0.14830408 42
0.67643178 -1.5661405 0.087109968 53
0.67497921 -1.563527 0.028767703 72
0.68760008 -1.5965894 -0.45522478 55
0.6835618 -1.5879755 -0.38999504 32
0.67467761 -1.5680904 -0.32408401 35
0.68432379 -1.591275 -0.26798946 25
0.69909102 -1.6263958 -0.21235971 9
0.67967749 -1.5819923 -0.14729321 28
0.68103105 -1.5859058 -0.088153206 59
0.67367303 -1.5695266 -0.029145516 76
0.66823202 -1.5576004 0.44358552 63
0.6736635 -1.5710173 0.38549939 56
0.67828828 -1.5825651 0.32694358 63
0.67237765 -1.5695311 0.26408291 72
0.67142433 -1.5680617 0.20444946 73
0.68139774 -1.5921218 0.14786917 70
0.67096084 -1.5684921 0.087109968 59
0.6695174 -1.5658736 0.028767703 80
0.67823285 -1.5900948 -0.4526383 75
0.67610383 -1.5858701 -0.38887113 39
0.66919988 -1.570436 -0.32408401 50
0.67489457 -1.5845667 -0.26642683 39
0.67785829 -1.592296 -0.20749186 39
0.66049963 -1.552272 -0.14424275 45
0.6715827 -1.5790837 -0.087631583 75
0.67014599 -1.5764693 -0.02923278 85
0.66090214 -1.5554781 0.44229224 76
0.66817546 -1.5733593 0.38549939 69
0.67275989 -1.584923 0.32694358 79
0.66689485 -1.5718687 0.26408291 80
0.66594666 -1.5703959 0.20444946 83
0.6738922 -1.5899045 0.14743426 83
0.66353387 -1.5662271 0.08684916 75
0.66404742 -1.5682012 0.028767703 86
0.67267829 -1.5924525 -0.4526383 82
0.66704947 -1.5791272 -0.38662329 70
0.66398841 -1.5726464 -0.32408401 73
0.66579604 -1.5776961 -0.26486424 59
0.66871673 -1.5853896 -0.2062749 46
0.65921849 -1.5636332 -0.14511432 64
0.6682815 -1.5859033 -0.087892391 82
0.662974 -1.5740758 -0.029145516 82
0.65574044 -1.5576612 0.44229224 77
0.66106474 -1.5710757 0.38437548 70
0.66559762 -1.5826207 0.32599038 76
0.66167873 -1.5740714 0.26408291 81
0.658813 -1.5680202 0.20384097 82
0.66668755 -1.587538 0.14699936 84
0.6583364 -1.5684187 0.08684916 81
0.6588434 -1.5703946 0.028767703 85
0.6673938 -1.5946745 -0.4526383 84
0.66153324 -1.5814462 -0.38662329 84
0.65660149 -1.5704262 -0.32313082 81
0.65838051 -1.5754539 -0.26408291 77
0.6574403 -1.573976 -0.20444946 71
0.65375644 -1.5659248 -0.14511432 71
0.65312719 -1.565186 -0.086588353 65
0.63053375 -1.5117842 -0.027923848 54
0.64844072 -1.5554827 0.440999 76
0.65557671 -1.5733736 0.38437548 70
0.66006917 -1.5849346 0.32599038 76
0.65618014 -1.5763716 0.26408291 80
0.65333551 -1.5703104 0.20384097 83
0.65922934 -1.5852563 0.14656444 83
0.6528576 -1.5707073 0.08684916 82
0.65335774 -1.5726849 0.028767703 88
0.66182327 -1.5969943 -0.4526383 84
0.6560089 -1.5837456 -0.38662329 83
0.6511156 -1.5727085 -0.32313082 83
0.65287715 -1.5777425 -0.26408291 81
0.64814848 -1.5670892 -0.2032325 75
0.61974245 -1.49915 -0.13857763 51
0.62477821 -1.5120789 -0.083458655 45
0.60998648 -1.4770104 -0.027225751 45
0.64300716 -1.5577368 0.440999 76
0.65008062 -1.5756524 0.38437548 71
0.6526615 -1.5826913 0.32503721 78
0.64879167 -1.5740865 0.26330161 80
0.64595973 -1.5679926 0.2032325 83
0.65179527 -1.5829418 0.14612953 85
0.64737082 -1.5729766 0.08684916 82
0.64786398 -1.5749558 0.028767703 87
0.6544112 -1.5948265 -0.45134503 81
0.65047663 -1.5860258 -0.38662329 85
0.6456219 -1.5749718 -0.32313082 82
0.64549345 -1.5754418 -0.26330161 81
0.64267439 -1.5693421 -0.2032325 77
0.59186351 -1.4459871 -0.13334829 40
0.59491765 -1.4541725 -0.080068149 41
0.58212131 -1.4236028 -0.02617861 36
0.63573843 -1.5555009 0.43970576 78
0.64089179 -1.5688915 0.38212767 71
0.64713293 -1.58496 0.32503721 75
0.63956112 -1.5671967 0.26173899 79
0.64235687 -1.5748332 0.20384097 84
0.6462658 -1.5852075 0.14612953 84
0.64187622 -1.5752267 0.08684916 82
0.64047676 -1.5725778 0.028681314 86
0.64702237 -1.5926265 -0.45005178 40
0.64310336 -1.5837727 -0.38549939 84
0.63458282 -1.5635718 -0.32027125 83
0.63999021 -1.5776854 -0.26330161 78
0.63346297 -1.5623776 -0.20201553 63
0.56623441 -1.3972647 -0.12855473 38
0.57671636 -1.4238445 -0.078242488 44
0.56776851 -1.4024566 -0.025742298 38
0.62668151 -1.548756 0.43711925 67
0.63358474 -1.5666026 0.38100377 58
0.64159644 -1.5872092 0.32503721 69
0.63038659 -1.5602616 0.26017636 72
0.6312809 -1.5632604 0.20201553 75
0.64259273 -1.5920727 0.14656444 83
0.63450563 -1.5728271 0.086588353 80
0.63311404 -1.5701674 0.028594924 86
0.62343651 -1.5500653 -0.43711925 25
0.63938832 -1.5905282 -0.38662329 75
0.62180132 -1.5475597 -0.31645852 47
0.62159616 -1.54783 -0.25783244 39
0.6132161 -1.5277339 -0.1971477 33
0.55208045 -1.3761185 -0.12637582 40
0.56616765 -1.4119455 -0.077460065 45
0.55171078 -1.3765874 -0.025218725 40
0.59971964 -1.4971321 0.42160022 52
0.61000335 -1.5235746 0.36976472 43
0.62693423 -1.5666543 0.32027125 58
0.60843021 -1.5211841 0.25314459 65
0.60187113 -1.5055473 0.19410528 70
0.63148689 -1.5804296 0.14525972 71
0.61975211 -1.5518469 0.085284315 70
0.59797615 -1.4980792 0.027212691 85
0.57335681 -1.4400504 -0.40478793 13
0.62842816 -1.5791702 -0.38325158 59
0.58374298 -1.4676268 -0.29930112 35
0.60889179 -1.5316335 -0.25470719 38
0.58039093 -1.4606836 -0.18802048 23
0.54543507 -1.373408 -0.12594004 41
0.55939347 -1.4092722 -0.077199258 45
0.54505867 -1.373858 -0.025131464 53
0.55888313 -1.4094212 0.39573517 43
0.57057446 -1.4396383 0.34841052 40
0.59073144 -1.4912568 0.30406705 50
0.57039237 -1.4406466 0.23908098 59
0.57104629 -1.4430342 0.18558656 65
0.59298974 -1.4992499 0.13743135 56
0.58679616 -1.4843482 0.081372187 63
0.56518668 -1.4304154 0.02591685 76
0.54530448 -1.3836279 -0.38797569 9
0.5925566 -1.5042927 -0.36414522 40
0.54625058 -1.387448 -0.28214374 39
0.55471516 -1.4096693 -0.23361182 32
0.54622513 -1.3888053 -0.17828478 27
0.53881532 -1.3706679 -0.12550427 54
0.55264479 -1.4065688 -0.07693845 58
0.53843236 -1.371099 -0.025044201 59
0.53631341 -1.3664042 0.38280267 46
0.54775292 -1.396266 0.33717149 40
0.55506313 -1.4156269 0.28786287 51
0.54734039 -1.3966482 0.23126788 58
0.5479055 -1.3988087 0.17950176 65
0.55688334 -1.4224602 0.1300379 64
0.55613869 -1.4212888 0.077720873 59
0.54016072 -1.381165 0.024966564 68
0.54047143 -1.385523 -0.38797569 9
0.55544609 -1.4246454 -0.3439149 39
0.53071123 -1.3619063 -0.27642459 50
0.53903699 -1.3839856 -0.22892395 40
0.53597295 -1.3768291 -0.17645934 37
0.53222138 -1.3678983 -0.12506849 56
0.54773158 -1.4084893 -0.07693845 57
0.53545403 -1.3776295 -0.025131464 39
0.52979153 -1.3637658 0.38150942 44
0.5411123 -1.3936278 0.33604759 33
0.54301524 -1.3992525 0.28405011 53
0.54067594 -1.3939458 0.23048657 52
0.53763771 -1.3868307 0.17767631 60
0.54291642 -1.4011726 0.12786335 74
0.53855145 -1.3906279 0.075895213 47
0.53353161 -1.3783801 0.024880175 40
0.54258984 -1.405424 -0.39314869 9
0.54170012 -1.4038486 -0.3382954 36
0.52595413 -1.3637506 -0.27642459 37
0.53420269 -1.3858588 -0.22892395 40
0.53116369 -1.3786917 -0.17645934 49
0.52744335 -1.3697479 -0.12506849 42
0.54281169 -1.4103928 -0.07693845 45
0.53243685 -1.3841562 -0.025218725 29
0.52329469 -1.3610986 0.38021615 41
0.53274918 -1.3864124 0.33379978 22
0.54340696 -1.4148855 0.28690967 38
0.53757668 -1.4004351 0.23126788 41
0.53457123 -1.3933326 0.17828478 36
0.54515588 -1.4216626 0.12960298 87
0.53369403 -1.3924993 0.075895213 52
0.52871698 -1.380234 0.024880175 33
0.53940451 -1.4118212 -0.39444193 10
0.53182536 -1.3919839 -0.33492368 28
0.52317977 -1.3700724 -0.27737778 32
0.5313651 -1.3922367 -0.22970524 34
0.52835763 -1.3850824 -0.17706783 36
0.52467269 -1.3761436 -0.12550427 32
0.53635365 -1.4075191 -0.076677635 27
0.53140253 -1.3952581 -0.025393249 19
0.52049649 -1.3673404 0.38150942 40
0.53681117 -1.4109395 0.33941931 17
0.54045665 -1.4212674 0.28786287 29
0.53994781 -1.4206756 0.23439312 39
0.52642316 -1.3858187 0.17706783 22
0.54043847 -1.4234626 0.12960298 94
0.53438789 -1.4082667 0.076677635 66
0.52768266 -1.3913286 0.025052954 21
0.53984612 -1.4271545 -0.39832169 11
0.51834846 -1.3710456 -0.32930413 19
0.52012914 -1.3764819 -0.27833098 20
0.52824694 -1.3987031 -0.23048657 24
0.52351952 -1.3869183 -0.17706783 26
0.52162403 -1.382627 -0.12594004 21
0.53496069 -1.418727 -0.077199258 18
0.53005499 -1.4064605 -0.025567774 16
0.51572043 -1.3691489 0.38150942 43
0.54218221 -1.4401624 0.34616271 15
0.54067779 -1.436927 0.29072243 23
0.54020071 -1.4364194 0.23673706 44
0.52158254 -1.3876479 0.17706783 11
0.53546637 -1.4253404 0.12960298 87
0.53473437 -1.424147 0.077460065 86
0.52809227 -1.4072034 0.025312122 17
0.53994024 -1.4426004 -0.40220144 12
0.52038753 -1.3910995 -0.33379978 10
0.52047795 -1.3920816 -0.28119054 17
0.52508998 -1.4051646 -0.23126788 17
0.52214789 -1.3980356 -0.17828478 15
0.52027845 -1.3937722 -0.12681161 14
0.53524125 -1.4346203 -0.077981681 16
0.52863568 -1.4176707 -0.025742298 16
0.5092513 -1.366415 0.38021615 41
0.54395449 -1.4603086 0.35065833 15
0.53908372 -1.4480052 0.29262879 17
0.54035014 -1.4521818 0.23908098 33
0.51500571 -1.3848084 0.17645934 8
0.53048772 -1.4272009 0.12960298 75
0.53671539 -1.4447275 0.078503296 84
0.52839744 -1.4230982 0.025571292 16
0.53154683 -1.4354178 -0.39961493 13
0.51891071 -1.4020458 -0.33604759 10
0.52072406 -1.4077001 -0.28405011 14
0.52360702 -1.4162532 -0.23283051 16
0.51898485 -1.4045049 -0.17889327 12
0.51886135 -1.4049249 -0.12768316 14
0.53714645 -1.455217 -0.079024911 15
0.53060514 -1.4382683 -0.026091347 15
0.50447857 -1.3681842 0.38021615 50
0.54727715 -1.4850559 0.35627785 15
0.53572243 -1.454484 0.29358199 12
0.53015953 -1.4401557 0.23673706 21
0.51188231 -1.3912554 0.17706783 6
0.52550262 -1.4290439 0.12960298 83
0.53339154 -1.4512789 0.078764103 62
0.52859801 -1.4390119 0.025830461 18
0.52321029 -1.4281943 -0.39702845 12
0.51736367 -1.4129987 -0.3382954 8
0.52255428 -1.4279467 -0.28786287 16
0.52205288 -1.4273485 -0.23439312 15
0.51919079 -1.4202915 -0.18071872 13
0.51908207 -1.420763 -0.1289905 14
0.5389142 -1.4758441 -0.080068149 17
0.53072327 -1.4542005 -0.026353132 17
0.49804455 -1.3653995 0.37892288 47
0.54876506 -1.5052667 0.3607735 18
0.53400272 -1.4655684 0.29548836 11
0.52174938 -1.4327165 0.23517443 12
0.51041764 -1.4023608 0.17828478 13
0.51880831 -1.4261886 0.12916808 55
0.52320403 -1.4390539 0.077981681 30
0.53040123 -1.4596429 0.026176019 18
0.51493067 -1.4209303 -0.39444193 11
0.51574659 -1.4239576 -0.34054321 8
0.52424932 -1.4482229 -0.29167563 16
0.52210796 -1.4430941 -0.23673706 17
0.52098036 -1.4407635 -0.18315265 14
0.51919842 -1.4366196 -0.13029784 15
0.5422408 -1.5011975 -0.081372187 19
0.53243405 -1.4748528 -0.026702181 17
0.49327534 -1.3671297 0.37892288 50
0.55011827 -1.5255055 0.36526912 21
0.53054798 -1.4720411 0.29644156 9
0.51507133 -1.4298826 0.23439312 8
0.50720042 -1.4088033 0.17889327 13
0.51382679 -1.4279909 0.12916808 35
0.51310837 -1.4267757 0.077199258 18
0.53206682 -1.4803039 0.026521577 19
0.50507838 -1.4090792 -0.39056218 8
0.51241606 -1.4303358 -0.34166712 7
0.52580917 -1.468528 -0.29548836 16
0.52372324 -1.4635071 -0.23986229 16
0.52263325 -1.4612651 -0.18558656 15
0.52088696 -1.4571846 -0.13204095 15
0.54371697 -1.5218894 -0.082415417 19
0.53568816 -1.5002429 -0.02713849 17
0.48687685 -1.3642942 0.37762964 52
0.54970008 -1.5411832 0.36864081 29
0.52705443 -1.4785075 0.29739475 8
0.510077 -1.431672 0.23439312 7
0.50394452 -1.4152406 0.17950176 14
0.50716901 -1.4250829 0.12873317 22
0.50477815 -1.4191492 0.076677635 11
0.53359449 -1.500994 0.026867134 21
0.50177056 -1.415386 -0.39185542 7
0.51067436 -1.4413003 -0.3439149 8
0.52723354 -1.4888617 -0.29930112 16
0.52685004 -1.4886043 -0.24376884 17
0.52580422 -1.4864742 -0.18862896 14
0.52243817 -1.4777783 -0.13378407 17
0.54671866 -1.5473181 -0.083719462 23
0.53710669 -1.5209595 -0.027487539 21
0.48050418 -1.3614311 0.3763364 54
0.54755849 -1.552282 0.37088862 46
0.52352226 -1.4849672 0.29834792 8
0.50671768 -1.4381015 0.23517443 19
0.49900135 -1.416991 0.17950176 15
0.49888402 -1.4174476 0.12786335 14
0.49485064 -1.4067718 0.075895213 8
0.53664219 -1.5264287 0.02729908 27
0.50321859 -1.4353603 -0.39702845 12
0.51047343 -1.4568679 -0.34728661 8
0.53014457 -1.5138551 -0.30406705 17
0.53143936 -1.5184021 -0.2484567 17
0.5271669 -1.5070386 -0.19106288 16
0.52549565 -1.5031025 -0.13596296 17
0.54954934 -1.5727856 -0.085023507 34
0.54003531 -1.5464237 -0.027923848 36
0.47574893 -1.3631001 0.3763364 59
0.54534596 -1.5633841 0.37313643 71
0.51833558 -1.4867857 0.29834792 9
0.50331962 -1.4445252 0.23595574 15
0.49405208 -1.4187243 0.17950176 15
0.4939332 -1.4191803 0.12786335 10
0.48665616 -1.3990583 0.075373597 7
0.53951889 -1.551903 0.027731029 45
0.50295115 -1.4507984 -0.4009082 12
0.511765 -1.4770553 -0.35178223 9
0.53128135 -1.5342491 -0.30787984 25
0.53744215 -1.5529169 -0.25392589 23
0.53001457 -1.5323204 -0.19410528 21
0.52675521 -1.5237582 -0.13770607 26
0.54405594 -1.5746944 -0.085023507 76
0.54279268 -1.5719267 -0.02836016 86
0.4694123 -1.3601867 0.37504312 60
0.54306263 -1.5744897 0.37538424 77
0.51474214 -1.4932264 0.29930112 10
0.49827424 -1.4462733 0.23595574 15
0.48909682 -1.4204402 0.17950176 17
0.49383888 -1.4350257 0.12916808 8
0.48014557 -1.396027 0.07511279 11
0.54222399 -1.5774155 0.028162977 96
0.50258207 -1.4662517 -0.40478793 12
0.51318306 -1.4971795 -0.35627785 9
0.5341441 -1.5592194 -0.31264576 65
0.54028797 -1.578052 -0.25783244 50
0.53296399 -1.5575476 -0.1971477 34
0.53137004 -1.5537745 -0.14032075 50
0.54044598 -1.5812147 -0.085284315 110
0.54242504 -1.5879105 -0.028621946 106
0.46489918 -1.3617359 0.37504312 57
0.54098505 -1.5855042 0.37763205 71
0.50978762 -1.494925 0.29930112 12
0.49506864 -1.4525924 0.23673706 12
0.48278353 -1.4173565 0.17889327 14
0.49710351 -1.460232 0.13134262 11
0.47390524 -1.3928844 0.074851982 10
0.53859955 -1.5839379 0.028249366 104
0.49461523 -1.4587623 -0.40220144 12
0.51264477 -1.5128046 -0.35964957 9
0.53814507 -1.5889678 -0.31836489 104
0.53635967 -1.5846063 -0.25861374 101
0.53229481 -1.5735017 -0.19897313 92
0.53391969 -1.5792129 -0.14249964 100
0.5349232 -1.5830916 -0.085284315 111
0.53527939 -1.5850579 -0.028534682 102
0.45859846 -1.3587742 0.37374988 64
0.53700453 -1.5919993 0.37875596 58
0.50456619 -1.4966954 0.29930112 13
0.49157199 -1.4589916 0.23751837 10
0.47783312 -1.4190331 0.17889327 14
0.50153583 -1.4902836 0.13395208 10
0.46904027 -1.3945301 0.074851982 10
0.53306735 -1.5858084 0.028249366 102
0.48645028 -1.4513209 -0.39961493 13
0.50426584 -1.5053455 -0.35740176 9
0.53259528 -1.5908365 -0.31836489 104
0.53082508 -1.5864689 -0.25861374 103
0.53152084 -1.5894701 -0.20079857 102
0.52682513 -1.5763429 -0.14206386 102
0.52939397 -1.584949 -0.085284315 102
0.52816033 -1.5821747 -0.028447421 97
0.45385268 -1.3603667 0.37374988 61
0.53144413 -1.5938641 0.37875596 43
0.49933875 -1.4984475 0.29930112 13
0.4880366 -1.4653841 0.23829968 10
0.47287688 -1.4206923 0.17889327 13
0.49947524 -1.501478 0.13482189 15
0.46259433 -1.3914206 0.074591175 13
0.52595216 -1.5829152 0.028162977 99
0.47986239 -1.4484254 -0.39832169 14
0.49900818 -1.5070965 -0.35740176 9
0.52549696 -1.5880262 -0.31741169 100
0.52528405 -1.5883123 -0.25861374 99
0.52441186 -1.5866036 -0.2001901 99
0.52131951 -1.5781722 -0.14206386 97
0.52385825 -1.5867873 -0.085284315 97
0.52106786 -1.5792611 -0.02836016 95
0.44910133 -1.3619425 0.37374988 62
0.52435237 -1.5910822 0.37763205 45
0.4941051 -1.5001814 0.29930112 10
0.48446262 -1.4717697 0.23908098 9
0.46791482 -1.4223343 0.17889327 13
0.49111956 -1.4937485 0.13395208 24
0.45773456 -1.3930269 0.074591175 16
0.5188638 -1.5799918 0.028076587 97
0.47330058 -1.4455014 -0.39702845 13
0.49374443 -1.5088291 -0.35740176 10
0.51842481 -1.5851858 -0.31645852 98
0.5182023 -1.5854419 -0.25783244 93
0.51732934 -1.5837071 -0.19958161 93
0.5142616 -1.5752472 -0.14162809 90
0.51831609 -1.5886064 -0.085284315 94
0.51555198 -1.5810704 -0.02836016 91
0.442848 -1.3589097 0.37245664 64
0.51879525 -1.5929029 0.37763205 43
0.48582709 -1.4925625 0.29739475 9
0.48390546 -1.4875408 0.24142492 10
0.4629471 -1.423959 0.17889327 13
0.49359855 -1.5191401 0.13612662 14
0.45286921 -1.3946161 0.074591175 11
0.51180226 -1.5770383 0.027990198 95
0.46527818 -1.4379543 -0.39444193 12
0.48997366 -1.5151792 -0.35852566 11
0.51137888 -1.5823153 -0.31550533 95
0.51266491 -1.5872412 -0.25783244 88
0.51027346 -1.5807804 -0.19897313 91
0.50723058 -1.5722924 -0.1411923 93
0.51276767 -1.5904059 -0.085284315 91
0.5084967 -1.578102 -0.028272897 91
0.4381018 -1.3604474 0.37245664 61
0.51173919 -1.5900663 0.37650815 46
0.47460258 -1.4755591 0.29358199 14
0.47417602 -1.475116 0.23908098 10
0.45797372 -1.4255663 0.17889327 14
0.47915664 -1.4923981 0.13351716 9
0.44799829 -1.3961885 0.074591175 9
0.50629431 -1.5788152 0.027990198 95
0.45878512 -1.4349692 -0.39314869 10
0.48616457 -1.5215211 -0.35964957 10
0.50435936 -1.579415 -0.31455213 94
0.50561982 -1.5843161 -0.25705114 87
0.50324434 -1.5778238 -0.19836466 85
0.5017392 -1.5740534 -0.1411923 88
0.50569737 -1.5874285 -0.085023507 90
0.502985 -1.5798674 -0.028272897 90
0.4318859 -1.357366 0.3711634 62
0.50618571 -1.5918429 0.37650815 53
0.46201614 -1.4538178 0.28881606 38
0.46453929 -1.4626417 0.23673706 13
0.45149335 -1.422426 0.17828478 13
0.46791986 -1.4750702 0.13177752 7
0.443122 -1.3977438 0.074591175 8
0.49927011 -1.5758072 0.027903808 94
0.45668286 -1.445773 -0.39573517 10
0.48378387 -1.532501 -0.36189741 9
0.49736634 -1.576485 -0.31359896 92
0.50008637 -1.5860715 -0.25705114 86
0.49773368 -1.5795709 -0.19836466 86
0.49474552 -1.5710442 -0.14075653 88
0.50015312 -1.589184 -0.085023507 89
0.49596721 -1.5768446 -0.028185636 91
0.42714521 -1.3588653 0.3711634 59
0.49916589 -1.5889521 0.37538424 53
0.45399809 -1.4460559 0.28690967 81
0.45647386 -1.4548301 0.23517443 15
0.44652542 -1.4239933 0.17828478 13
0.45829943 -1.4624352 0.13047281 7
0.4457019 -1.4231069 0.075895213 6
0.49376649 -1.5775403 0.027903808 95
0.45594946 -1.4611901 -0.39961493 10
0.47843152 -1.5341804 -0.36189741 9
0.4903999 -1.5735255 -0.31264576 92
0.49307835 -1.5830923 -0.25626981 86
0.49074191 -1.57656 -0.19775617 83
0.48925856 -1.5727618 -0.14075653 88
0.49460277 -1.5909202 -0.085023507 88
0.49045995 -1.5785662 -0.028185636 90
0.42239925 -1.360348 0.3711634 60
0.49217242 -1.5860316 0.37426034 57
0.45476317 -1.4663839 0.29072243 54
0.44846877 -1.4469804 0.23361182 17
0.44008365 -1.4208026 0.17767631 13
0.448773 -1.4497513 0.12916808 7
0.44515875 -1.4389645 0.076677635 5
0.48825684 -1.5792543 0.027903808 93
0.45511395 -1.4766196 -0.40349469 10
0.47020486 -1.5265287 -0.35964957 8
0.48346025 -1.5705367 -0.31169257 82
0.4875493 -1.5848039 -0.25626981 86
0.48523569 -1.5782634 -0.19775617 86
0.48230264 -1.5696987 -0.14032075 87
0.48904642 -1.5926371 -0.085023507 88
0.4834801 -1.5754894 -0.028098373 91
0.41764817 -1.3618141 0.3711634 54
0.48663315 -1.5877399 0.37426034 56
0.45107928 -1.4726555 0.29167563 22
0.44341514 -1.4485369 0.23361182 16
0.43366963 -1.4175845 0.17706783 13
0.44225335 -1.4465455 0.12873317 7
0.45472348 -1.4882624 0.079285726 11
0.48128125 -1.5761677 0.027817419 93
0.45136327 -1.4828196 -0.40478793 10
0.4634555 -1.5234997 -0.35852566 8
0.47511974 -1.5628226 -0.3097862 38
0.48057869 -1.5817707 -0.25548851 84
0.47972357 -1.5799477 -0.19775617 84
0.47682044 -1.5713726 -0.14032075 87
0.48203507 -1.5895561 -0.0847627 87
0.47797766 -1.5771674 -0.028098373 90
0.41289201 -1.3632637 0.3711634 52
0.47967651 -1.5847659 0.37313643 57
0.44877824 -1.4836173 0.29358199 13
0.4383561 -1.4500759 0.23361182 14
0.42871866 -1.4190896 0.17706783 13
0.4357616 -1.443312 0.12829827 8
0.44375622 -1.4707193 0.078242488 9
0.47577643 -1.5778381 0.027817419 93
0.44757485 -1.4890116 -0.4060812 11
0.45533136 -1.5157759 -0.35627785 8
0.4682503 -1.5597705 -0.308833 22
0.47505435 -1.5834386 -0.25548851 86
0.47278035 -1.5768588 -0.1971477 83
0.46990275 -1.5682561 -0.13988498 87
0.47648358 -1.591229 -0.0847627 88
0.47246939 -1.5788263 -0.028098373 88
0.40674698 -1.3600692 0.36987013 48
0.47414172 -1.5864305 0.37313643 59
0.4464061 -1.4945806 0.29548836 11
0.4332917 -1.4515972 0.23361182 11
0.42234385 -1.4158217 0.17645934 15
0.43072087 -1.4448243 0.12829827 8
0.43861976 -1.4722593 0.078242488 10
0.4702659 -1.5794891 0.027817419 94
0.44100034 -1.4859346 -0.40478793 12
0.45030236 -1.5172775 -0.35627785 8
0.4616797 -1.5566092 -0.30787984 14
0.46980089 -1.5850053 -0.25548851 86
0.46754873 -1.578418 -0.1971477 84
0.46469963 -1.5698057 -0.13988498 87
0.46978781 -1.5880123 -0.084501892 89
0.46581391 -1.5755905 -0.028011112 89
0.40223458 -1.3614106 0.36987013 47
0.46749863 -1.5833215 0.37201253 63
0.44422567 -1.5054681 0.29739475 10
0.42847565 -1.4530261 0.23361182 9
0.41764653 -1.4172145 0.17645934 16
0.42452005 -1.4414665 0.12786335 7
0.43232539 -1.4689158 0.077981681 12
0.46361488 -1.5762439 0.027731029 93
0.43471161 -1.4827541 -0.40349469 13
0.44500336 -1.5188401 -0.35627785 8
0.45486408 -1.5535007 -0.30692664 12
0.46426532 -1.5866356 -0.25548851 85
0.46203616 -1.5800403 -0.1971477 83
0.45781997 -1.566637 -0.13944918 87
0.46424177 -1.5896425 -0.084501892 89
0.46031123 -1.5772067 -0.028011112 88
0.39612758 -1.3581697 0.36857688 45
0.46060568 -1.5802665 0.37088862 64
0.44171321 -1.5164346 0.29930112 11
0.42478129 -1.4592546 0.23439312 7
0.4113107 -1.4138985 0.17585087 16
0.41948581 -1.4429394 0.12786335 7
0.42580223 -1.465621 0.077720873 12
0.45810995 -1.5778526 0.027731029 94
0.4281905 -1.479623 -0.40220144 13
0.44105241 -1.5250645 -0.35740176 8
0.44807577 -1.5503637 -0.30597344 14
0.45735371 -1.5835017 -0.25470719 87
0.45514166 -1.5768753 -0.19653921 83
0.45234856 -1.5682256 -0.13944918 88
0.45730701 -1.5864555 -0.084241085 87
0.45480293 -1.5788039 -0.028011112 88
0.39138424 -1.3595442 0.36857688 43
0.45508668 -1.5818645 0.37088862 65
0.43912959 -1.5274016 0.30120748 12
0.41695753 -1.4512354 0.23283051 8
0.40637279 -1.4153256 0.17585087 15
0.41444644 -1.4443951 0.12786335 7
0.41930738 -1.4622986 0.077460065 12
0.45259941 -1.5794421 0.027731029 96
0.42169663 -1.4764645 -0.4009082 14
0.43572628 -1.5265948 -0.35740176 9
0.44266129 -1.5519183 -0.30597344 14
0.45182347 -1.5850886 -0.25470719 85
0.44963458 -1.5784544 -0.19653921 84
0.44550797 -1.5650046 -0.13901341 86
0.45176646 -1.5880421 -0.084241085 88
0.44792202 -1.575573 -0.027923848 89
0.38663617 -1.3609021 0.36857688 43
0.44823152 -1.5787567 0.36976472 63
0.43781444 -1.5430907 0.30406705 12
0.41054207 -1.4479307 0.2320492 9
0.40007696 -1.4119606 0.17524238 13
0.40940204 -1.445833 0.12786335 8
0.41148132 -1.4541441 0.07693845 15
0.44572297 -1.5762017 0.027644638 92
0.41523004 -1.4732788 -0.39961493 13
0.42643231 -1.5140377 -0.35403004 8
0.43724135 -1.5534539 -0.30597344 16
0.44495052 -1.581902 -0.25392589 86
0.44412199 -1.5800142 -0.19653921 85
0.44004235 -1.56655 -0.13901341 86
0.4462204 -1.5896095 -0.084241085 90
0.44241947 -1.577127 -0.027923848 90
0.38188338 -1.3622434 0.36857688 40
0.44271788 -1.5803117 0.36976472 63
0.43507192 -1.554063 0.30597344 13
0.40415472 -1.4445989 0.23126788 8
0.39514589 -1.4133484 0.17524238 10
0.40435264 -1.4472531 0.12786335 8
0.40371737 -1.445953 0.076416828 18
0.4402183 -1.5777478 0.027644638 93
0.40749684 -1.4654127 -0.39702845 10
0.41723138 -1.5014344 -0.35065833 7
0.43181613 -1.5549707 -0.30597344 17
0.43942595 -1.5834455 -0.25392589 88
0.43860403 -1.581555 -0.19653921 82
0.43457139 -1.5680766 -0.13901341 85
0.43933624 -1.5863452 -0.08398027 88
0.43691161 -1.5786617 -0.027923848 88
0.37583843 -1.3589128 0.36728364 40
0.43719891 -1.5818474 0.36976472 64
0.43095133 -1.5603033 0.30692664 14
0.39648178 -1.4364797 0.22970524 12
0.38889036 -1.409935 0.17463391 10
0.39929834 -1.4486558 0.12786335 8
0.39734164 -1.4425397 0.07615602 17
0.43338147 -1.5744549 0.027558248 93
0.3883242 -1.4155906 -0.38280267 11
0.40812364 -1.4887857 -0.34728661 7
0.42638564 -1.5564686 -0.30597344 20
0.43259203 -1.5802065 -0.25314459 84
0.43177113 -1.5782894 -0.19593073 83
0.42909512 -1.569584 -0.13901341 88
0.43379617 -1.5878693 -0.08398027 86
0.43008173 -1.5753543 -0.027836585 88
0.37109265 -1.3602166 0.36728364 39
0.43039301 -1.5786633 0.36864081 65
0.42679244 -1.5665338 0.30787984 21
0.40184379 -1.4759761 0.23595574 12
0.38266352 -1.4064952 0.17402543 17
0.39554599 -1.4548475 0.12829827 12
0.39230382 -1.4439178 0.07615602 18
0.42788297 -1.5759581 0.027558248 93
0.37455028 -1.3843019 -0.37374988 16
0.3978377 -1.4713885 -0.34279102 7
0.42095 -1.5579474 -0.30597344 20
0.42707348 -1.5817069 -0.25314459 86
0.42625925 -1.579787 -0.19593073 84
0.42361367 -1.5710721 -0.13901341 88
0.42825082 -1.5893737 -0.08398027 89
0.42458007 -1.576846 -0.027836585 89
0.36634237 -1.3615037 0.36728364 36
0.42487985 -1.580156 0.36864081 65
0.42004794 -1.5632739 0.30692664 25
0.40309271 -1.501218 0.23986229 15
0.37775162 -1.4078224 0.17402543 30
0.3904652 -1.4562193 0.12829827 15
0.38855353 -1.4501015 0.076416828 15
0.42237926 -1.5774422 0.027558248 92
0.3609997 -1.3529348 -0.36469713 9
0.39421228 -1.4774071 -0.3439149 8
0.41578129 -1.5593348 -0.30597344 24
0.42182598 -1.5831145 -0.25314459 84
0.41974118 -1.5763961 -0.19532226 83
0.41712072 -1.5676548 -0.13857763 88
0.42297789 -1.5907851 -0.08398027 87
0.41806498 -1.5734137 -0.027749324 87
0.36058596 -1.3580431 0.36599037 32
0.41963753 -1.5815563 0.36864081 61
0.41486159 -1.5646582 0.30692664 21
0.40570149 -1.5311894 0.24455015 15
0.37181076 -1.4042698 0.17341694 32
0.38563406 -1.4575061 0.12829827 18
0.38884801 -1.4706913 0.077460065 13
0.41714594 -1.5788341 0.027558248 95
0.35897061 -1.3634658 -0.36728364 10
0.39029238 -1.4834859 -0.3450388 8
0.41033569 -1.5607767 -0.30597344 63
0.41629735 -1.5845772 -0.25314459 85
0.41423598 -1.5778517 -0.19532226 84
0.41164604 -1.5691013 -0.13857763 88
0.41742247 -1.592252 -0.08398027 87
0.41257021 -1.5748636 -0.027749324 90
0.35584337 -1.3592933 0.36599037 31
0.4141143 -1.5830114 0.36864081 61
0.40815601 -1.5613481 0.30597344 21
0.40784338 -1.5612657 0.24923801 25
0.3669067 -1.4055591 0.17341694 31
0.38054407 -1.4588434 0.12829827 19
0.38749039 -1.4865348 0.078242488 10
0.41037208 -1.5754427 0.027471859 95
0.35542241 -1.3693856 -0.36857688 12
0.38633481 -1.4895551 -0.34616271 7
0.40611649 -1.5669508 -0.30692664 78
0.40952536 -1.5812399 -0.25236326 85
0.40872577 -1.579288 -0.19532226 83
0.40491918 -1.5657063 -0.13814184 86
0.41061258 -1.5888649 -0.083719462 86
0.4070704 -1.5762941 -0.027749324 89
0.35109633 -1.3605273 0.36599037 31
0.40858603 -1.5844474 0.36864081 59
0.4027034 -1.5627633 0.30597344 18
0.40608564 -1.5770276 0.25158197 66
0.36199817 -1.4068313 0.17341694 27
0.37668985 -1.464987 0.12873317 23
0.38478428 -1.4975506 0.078764103 8
0.40487027 -1.5768656 0.027471859 91
0.35662547 -1.3940136 -0.37504312 9
0.37992626 -1.4861745 -0.3450388 7
0.40064433 -1.5683589 -0.30692664 86
0.40400332 -1.5826598 -0.25236326 84
0.40198386 -1.5758963 -0.19471376 83
0.39945138 -1.5671101 -0.13814184 89
0.4050639 -1.5902885 -0.083719462 87
0.40156561 -1.5777054 -0.027749324 89
0.34634507 -1.3617445 0.36599037 29
0.40305278 -1.5858639 0.36864081 60
0.39603767 -1.5594021 0.30502024 18
0.40179309 -1.5832223 0.25236326 111
0.3570852 -1.4080863 0.17341694 25
0.37157381 -1.4662929 0.12873317 18
0.38200596 -1.5085655 0.079285726 7
0.39936349 -1.5782691 0.027471859 93
0.35766086 -1.4186666 -0.38150942 7
0.37235582 -1.4780427 -0.34279102 7
0.39636552 -1.5745076 -0.30787984 92
0.39847633 -1.5840604 -0.25236326 84
0.39648047 -1.5772898 -0.19471376 83
0.39397871 -1.5684949 -0.13814184 88
0.39951029 -1.5916928 -0.083719462 88
0.39483976 -1.5742486 -0.027662061 88
0.34041545 -1.3582602 0.36469713 29
0.39633104 -1.5825353 0.36751691 56
0.38820878 -1.5512521 0.30311388 17
0.39506611 -1.5798241 0.25158197 117
0.35337099 -1.414139 0.17402543 23
0.36645323 -1.467581 0.12873317 17
0.37311131 -1.4953558 0.078503296 7
0.39385188 -1.5796536 0.027471859 95
0.35852838 -1.4433435 -0.38797569 7
0.36367315 -1.4651479 -0.33941931 6
0.39086708 -1.5758817 -0.30787984 91
0.39294448 -1.5854416 -0.25236326 86
0.39097232 -1.5786641 -0.19471376 82
0.38730466 -1.5650256 -0.13770607 88
0.3939518 -1.5930777 -0.083719462 87
0.38934219 -1.5756171 -0.027662061 87
0.33567214 -1.3594402 0.36469713 28
0.39080453 -1.583909 0.36751691 58
0.38161656 -1.5478321 0.30216068 16
0.38954908 -1.5811936 0.25158197 94
0.3484326 -1.4153638 0.17402543 22
0.36132818 -1.4688513 0.12873317 16
0.36669737 -1.4918002 0.078242488 6
0.38714299 -1.576164 0.02738547 92
0.35807997 -1.463352 -0.39314869 7
0.3585566 -1.4664084 -0.33941931 6
0.38536382 -1.5772365 -0.30787984 90
0.3874079 -1.5868036 -0.25236326 85
0.3842831 -1.5751978 -0.19410528 82
0.38183936 -1.566368 -0.13770607 88
0.38838851 -1.5944432 -0.083719462 88
0.38383988 -1.5769665 -0.027662061 90
0.32978332 -1.3559105 0.36340389 28
0.3841227 -1.5805292 0.36639303 56
0.37389469 -1.5396155 0.30025432 14
0.3840273 -1.5825437 0.25158197 32
0.34348994 -1.4165715 0.17402543 21
0.35619873 -1.4701036 0.12873317 16
0.36148775 -1.4930711 0.078242488 12
0.3816388 -1.5775058 0.02738547 93
0.35862774 -1.48807 -0.39961493 8
0.35571703 -1.4771242 -0.34166712 7
0.37985587 -1.5785719 -0.30787984 90
0.38071197 -1.5833446 -0.25158197 84
0.3787823 -1.5765295 -0.19410528 84
0.37636939 -1.5676913 -0.13770607 89
0.38282052 -1.5957892 -0.083719462 87
0.37833288 -1.5782968 -0.027662061 89
0.32504833 -1.3570535 0.36340389 26
0.37860331 -1.5818604 0.36639303 59
0.36623487 -1.531364 0.29834792 13
0.37850085 -1.5838746 0.25158197 26
0.33854309 -1.4177618 0.17402543 19
0.35106492 -1.471338 0.12873317 16
0.35627377 -1.4943238 0.078242488 13
0.37612996 -1.5788283 0.02738547 94
0.35900724 -1.5128095 -0.4060812 8
0.35730347 -1.5068005 -0.34841052 9
0.37434334 -1.5798883 -0.30787984 93
0.37518278 -1.5846639 -0.25158197 84
0.37327686 -1.5778421 -0.19410528 83
0.37089485 -1.5689955 -0.13770607 85
0.37724784 -1.5971158 -0.083719462 87
0.3728213 -1.5796078 -0.027662061 89
0.32030934 -1.3581798 0.36340389 25
0.37307927 -1.5831724 0.36639303 60
0.35863718 -1.5230777 0.29644156 13
0.37296981 -1.585186 0.25158197 28
0.33359212 -1.4189348 0.17402543 19
0.34478775 -1.4677054 0.12829827 16
0.35333756 -1.5052806 0.078764103 14
0.36947495 -1.5752645 0.02729908 94
0.35921836 -1.5375695 -0.41254744 10
0.35536429 -1.5222719 -0.35178223 13
0.36771125 -1.5764054 -0.30692664 90
0.36964899 -1.5859638 -0.25158197 84
0.36776686 -1.5791354 -0.19410528 85
0.36541575 -1.5702807 -0.13770607 86
0.37053967 -1.5935593 -0.083458655 87
0.36730519 -1.5808996 -0.027662061 90
0.31556645 -1.3592896 0.36340389 23
0.36644971 -1.5797191 0.36526912 62
0.35110188 -1.5147572 0.29453519 13
0.36743417 -1.5864784 0.25158197 29
0.32863706 -1.4200908 0.17402543 19
0.33966243 -1.4689 0.12829827 17
0.35032913 -1.5162348 0.079285726 15
0.363974 -1.5765446 0.02729908 93
0.35926095 -1.5623491 -0.41901374 12
0.35550335 -1.5472447 -0.35740176 24
0.36220631 -1.5776793 -0.30692664 92
0.36300644 -1.5824308 -0.25080064 86
0.36114365 -1.5755723 -0.19349679 82
0.35882023 -1.5666913 -0.13727029 87
0.36497486 -1.594843 -0.083458655 89
0.36067021 -1.5772988 -0.0275748 91
0.31189552 -1.3650913 0.36469713 23
0.36093324 -1.5809885 0.36526912 66
0.34472066 -1.5111881 0.29358199 12
0.3629916 -1.5925664 0.25236326 30
0.32367802 -1.4212292 0.17402543 17
0.33342764 -1.4652197 0.12786335 15
0.34724849 -1.5271862 0.079807341 18
0.35846859 -1.5778054 0.02729908 92
0.35487106 -1.5683045 -0.42030698 11
0.35224915 -1.5579804 -0.35964957 36
0.35561541 -1.5741464 -0.30597344 88
0.3574805 -1.5836883 -0.25080064 84
0.35564169 -1.5768234 -0.19349679 83
0.35334924 -1.5679343 -0.13727029 89
0.35940561 -1.5961071 -0.083458655 86
0.35516223 -1.5785481 -0.0275748 92
0.30712858 -1.3661718 0.36469713 21
0.35541239 -1.5822388 0.36526912 65
0.33729371 -1.5028039 0.29167563 12
0.35743031 -1.5938238 0.25236326 33
0.31871504 -1.4223504 0.17402543 17
0.32831106 -1.4663746 0.12786335 15
0.3430056 -1.5332618 0.080068149 16
0.35186827 -1.5741682 0.027212691 93
0.35044399 -1.5742482 -0.42160022 7
0.34998214 -1.5734681 -0.36302131 34
0.35011843 -1.5753781 -0.30597344 91
0.35195023 -1.5849265 -0.25080064 84
0.35013536 -1.578055 -0.19349679 83
0.34787399 -1.5691581 -0.13727029 88
0.35383192 -1.5973521 -0.083458655 87
0.34964991 -1.5797783 -0.0275748 91
0.30340075 -1.3719516 0.36599037 19
0.348836 -1.5787126 0.36414522 73
0.33098772 -1.4991792 0.29072243 10
0.35186464 -1.5950618 0.25236326 34
0.31374815 -1.4234543 0.17402543 17
0.32211915 -1.4626472 0.12742843 15
0.33550531 -1.5246968 0.079546534 12
0.34637129 -1.5753869 0.027212691 94
0.34081462 -1.5565894 -0.41642722 5
0.34448758 -1.5746801 -0.36302131 21
0.34356904 -1.5717955 -0.30502024 86
0.34641567 -1.5861454 -0.25080064 84
0.34462479 -1.5792677 -0.19349679 82
0.34133339 -1.5654963 -0.13683452 86
0.34825397 -1.5985774 -0.083458655 87
0.34307003 -1.5761042 -0.027487539 91
0.29963633 -1.3777218 0.36728364 16
0.34332314 -1.5799206 0.36414522 77
0.3247112 -1.4955291 0.28976923 12
0.34629467 -1.5962801 0.25236326 33
0.30877748 -1.4245408 0.17402543 16
0.31701159 -1.4637628 0.12742843 14
0.3249009 -1.5014575 0.078242488 8
0.34087002 -1.5765864 0.027212691 95
0.32216388 -1.4963878 -0.39961493 5
0.33898878 -1.575873 -0.36302131 11
0.33808035 -1.5729851 -0.30502024 80
0.33983997 -1.5825164 -0.25001931 86
0.33806887 -1.5756087 -0.19288832 84
0.33586672 -1.5666783 -0.13683452 87
0.34162596 -1.5949008 -0.08319784 88
0.33756629 -1.5772921 -0.027487539 90
0.29482535 -1.3787593 0.36728364 15
0.33678815 -1.5763448 0.36302131 82
0.31846416 -1.4918531 0.28881606 13
0.3407205 -1.5974792 0.25236326 33
0.30380303 -1.4256101 0.17402543 18
0.31190017 -1.4648604 0.12742843 13
0.31342387 -1.473279 0.076677635 7
0.33536464 -1.5777667 0.027212691 95
0.29093701 -1.3746486 -0.36599037 6
0.33147001 -1.5675135 -0.3607735 6
0.33157295 -1.5693535 -0.30406705 68
0.3343139 -1.583693 -0.25001931 85
0.33256689 -1.5767792 -0.19288832 84
0.33039594 -1.5678412 -0.13683452 85
0.33605665 -1.5960836 -0.08319784 88
0.33205846 -1.5784609 -0.027487539 88
0.29100427 -1.3845066 0.36857688 15
0.3302823 -1.5727428 0.36189741 85
0.31224674 -1.488152 0.28786287 13
0.33412889 -1.5938253 0.25158197 27
0.29984227 -1.4315192 0.17463391 16
0.30576462 -1.4610647 0.12699352 12
0.30316955 -1.4499265 0.075373597 7
0.32985517 -1.5789278 0.027212691 95
0.25859714 -1.2432537 -0.32977933 9
0.30642706 -1.473205 -0.3382954 4
0.32536826 -1.5656387 -0.30311388 47
0.32906032 -1.584793 -0.25001931 85
0.32733628 -1.5778733 -0.19288832 84
0.32519498 -1.5689281 -0.13683452 86
0.330762 -1.5971894 -0.08319784 88
0.32682225 -1.5795534 -0.027487539 90
0.28641146 -1.385464 0.36857688 14
0.32605061 -1.5786008 0.36302131 82
0.30631813 -1.4843723 0.28690967 10
0.32385543 -1.5707402 0.24767539 18
0.29509354 -1.4325056 0.17463391 16
0.30091786 -1.4620707 0.12699352 17
0.29333112 -1.4264697 0.074069552 10
0.32461742 -1.5800128 0.027212691 93
0.25060144 -1.2251769 -0.32460633 15
0.2895768 -1.4169848 -0.32480851 6
0.31597352 -1.5475286 -0.29930112 41
0.32253924 -1.581093 -0.24923801 84
0.32182649 -1.5790063 -0.19288832 86
0.31872255 -1.5651729 -0.13639873 87
0.32518476 -1.5983341 -0.08319784 89
0.32130662 -1.5806845 -0.027487539 88
0.28253484 -1.3911885 0.36987013 15
0.32053825 -1.5797292 0.36302131 49
0.30015966 -1.4806222 0.2859565 11
0.31346872 -1.5476599 0.24376884 14
0.29009137 -1.433527 0.17463391 17
0.29581246 -1.4631122 0.12699352 15
0.28736138 -1.4225906 0.073808745 17
0.31811118 -1.5762358 0.027126303 95
0.24442054 -1.2165736 -0.32201982 21
0.27408174 -1.3654426 -0.31244558 9
0.30767435 -1.5341847 -0.29644156 29
0.31701821 -1.5822092 -0.24923801 86
0.31631279 -1.5801201 -0.19288832 83
0.31325713 -1.566276 -0.13639873 90
0.31862512 -1.5945631 -0.082937032 88
0.31578705 -1.5817964 -0.027487539 91
0.27767694 -1.3921663 0.36987013 15
0.30645257 -1.5378355 0.35290614 27
0.29594788 -1.4864746 0.28690967 8
0.29264894 -1.4712456 0.23126788 10
0.28508565 -1.4345309 0.17463391 12
0.29070348 -1.4641358 0.12699352 12
0.28239384 -1.4235849 0.073808745 15
0.31260717 -1.5773367 0.027126303 95
0.23082425 -1.1700342 -0.30908728 21
0.25047085 -1.2707894 -0.28996748 14
0.29567897 -1.5015388 -0.28976923 20
0.31149334 -1.5833062 -0.24923801 87
0.31079519 -1.5812147 -0.19288832 85
0.30778787 -1.5673599 -0.13639873 87
0.31305715 -1.5956656 -0.082937032 88
0.309302 -1.5779831 -0.027400276 90
0.27374387 -1.3978668 0.3711634 16
0.28985703 -1.4815193 0.33941931 20
0.29734847 -1.5212187 0.29358199 16
0.28845811 -1.4771051 0.2320492 9
0.28007647 -1.4355172 0.17463391 14
0.28654391 -1.4700308 0.12742843 11
0.27837735 -1.4294631 0.074069552 11
0.30709931 -1.5784181 0.027126303 96
0.22398385 -1.1566075 -0.30520752 34
0.23955522 -1.2381727 -0.28210014 31
0.28484678 -1.4736471 -0.28405011 16
0.30596468 -1.584384 -0.24923801 86
0.30433369 -1.5774169 -0.19227985 85
0.30137217 -1.5635337 -0.13596296 89
0.30748531 -1.5967486 -0.082937032 86
0.30379194 -1.5790533 -0.027400276 91
0.26886275 -1.398814 0.3711634 15
0.27733353 -1.4442447 0.33042803 13
0.29666048 -1.5463493 0.29834792 26
0.29445586 -1.5363066 0.24142492 23
0.27413052 -1.4316119 0.17402543 11
0.28328264 -1.4808067 0.12829827 9
0.28088462 -1.4696615 0.07615602 15
0.30065015 -1.5745701 0.027039913 95
0.22445373 -1.1811069 -0.31167376 39
0.24250177 -1.2772936 -0.29109138 34
0.27421302 -1.4456983 -0.27833098 15
0.2995128 -1.58059 -0.2484567 83
0.29882562 -1.5784698 -0.19227985 83
0.29591256 -1.5645761 -0.13596296 88
0.30190977 -1.5978122 -0.082937032 89
0.29827812 -1.5801041 -0.027400276 90
0.26397836 -1.3997439 0.3711634 16
0.27048638 -1.4356285 0.32818022 11
0.29489267 -1.5666697 0.30216068 40
0.29091674 -1.5470321 0.24298753 39
0.26913157 -1.4325601 0.17402543 9
0.28362492 -1.5111599 0.13090771 11
0.28219438 -1.5049866 0.077981681 21
0.29515204 -1.5756099 0.027039913 95
0.22475527 -1.2056235 -0.31814006 35
0.25701517 -1.3786708 -0.31469339 26
0.26402533 -1.4176478 -0.27261186 14
0.29426971 -1.5815744 -0.2484567 85
0.29358959 -1.5794519 -0.19227985 84
0.29072264 -1.5655489 -0.13596296 89
0.29569876 -1.5938952 -0.082676224 88
0.29303667 -1.5810845 -0.027400276 88
0.26021448 -1.4053607 0.37245664 16
0.26661035 -1.4413084 0.32930413 9
0.2923716 -1.5821187 0.30502024 80
0.29206115 -1.5819838 0.2484567 114
0.26437959 -1.4334446 0.17402543 9
0.28402776 -1.5414836 0.13351716 80
0.28352964 -1.540289 0.079807341 37
0.28992552 -1.5765802 0.027039913 95
0.22944996 -1.2538718 -0.33107257 40
0.27322879 -1.4945824 -0.34166712 27
0.26348433 -1.4427028 -0.27737778 14
0.28874719 -1.5825921 -0.2484567 84
0.28718457 -1.5755845 -0.19167136 83
0.28436378 -1.5616539 -0.13552718 87
0.29013321 -1.5949178 -0.082676224 88
0.28662205 -1.5771792 -0.027313014 90
0.25617006 -1.4110126 0.37374988 16
0.26331657 -1.4518181 0.33155197 19
0.2868472 -1.5831296 0.30502024 101
0.28653723 -1.5829937 0.2484567 129
0.25849122 -1.4294751 0.17341694 9
0.28130168 -1.5571707 0.13482189 114
0.28258529 -1.5658383 0.081111379 91
0.28442046 -1.5775825 0.027039913 93
nan nan nan 0
0.2800419 -1.5626662 -0.35740176 30
0.26190665 -1.46294 -0.28119054 15
0.28235173 -1.5787289 -0.24767539 84
0.281683 -1.5765774 -0.19167136 83
0.27891082 -1.5626369 -0.13552718 90
0.28456417 -1.5959207 -0.082676224 86
0.28111491 -1.5781701 -0.027313014 91
0.25124314 -1.4118983 0.37374988 16
0.25909993 -1.4575253 0.33267587 16
0.28217754 -1.5889541 0.30597344 81
0.28014711 -1.5791216 0.24767539 121
0.25349984 -1.4303688 0.17341694 9
0.2767328 -1.563048 0.1352568 104
0.27885705 -1.5766491 0.081632994 102
0.27891192 -1.5785657 0.027039913 93
0.27504408 -1.5646428 -0.41513398 15
0.27627081 -1.5732312 -0.35964957 44
0.26019084 -1.483183 -0.2850033 19
0.2768392 -1.5797049 -0.24767539 85
0.276178 -1.577551 -0.19167136 83
0.27345449 -1.5636009 -0.13552718 87
0.27899161 -1.5969043 -0.082676224 88
0.27560437 -1.5791416 -0.027313014 89
0.24631317 -1.4127666 0.37374988 17
0.25401059 -1.4584209 0.33267587 16
0.27494663 -1.5802579 0.30406705 34
0.27463326 -1.5800899 0.24767539 47
0.24850538 -1.4312449 0.17341694 12
0.26531634 -1.5296502 0.13221245 21
0.27079442 -1.5628532 0.080850571 76
0.27340001 -1.5795296 0.027039913 94
0.27285916 -1.5846325 -0.42030698 14
0.27077752 -1.5741861 -0.35964957 91
0.25916809 -1.5082694 -0.28976923 28
0.27132332 -1.5806617 -0.24767539 84
0.27066961 -1.5785056 -0.19167136 81
0.26799485 -1.5645459 -0.13552718 90
0.27341571 -1.5978684 -0.082676224 86
0.27009043 -1.5800941 -0.027313014 88
0.24219313 -1.4183787 0.37504312 17
0.24973744 -1.4641012 0.33379978 14
0.26365757 -1.5473381 0.29739475 23
0.26828736 -1.5761704 0.24689408 18
0.24350789 -1.4321036 0.17341694 11
0.25747293 -1.5158348 0.13090771 12
0.25781983 -1.5194834 0.078503296 16
0.26788473 -1.5804744 0.027039913 93
0.26812911 -1.590338 -0.42160022 14
0.26689926 -1.5847305 -0.36189741 107
0.25715894 -1.5285258 -0.29358199 37
0.26580414 -1.581599 -0.24767539 84
0.26515797 -1.5794407 -0.19167136 83
0.26253194 -1.5654719 -0.13552718 88
0.26783639 -1.5988132 -0.082676224 90
0.26457322 -1.5810274 -0.027313014 90
0.2372406 -1.4192156 0.37504312 16
0.24462524 -1.4649639 0.33379978 13
0.25340936 -1.5192006 0.29167563 18
0.26278386 -1.5770974 0.24689408 14
0.23850743 -1.4329449 0.17341694 12
0.2480953 -1.4921564 0.12873317 12
0.24678759 -1.485894 0.076677635 9
0.26236624 -1.5813998 0.027039913 95
0.26257616 -1.5912642 -0.42160022 17
0.26136586 -1.5856525 -0.36189741 109
0.25580895 -1.5536296 -0.29834792 72
0.26028171 -1.5825173 -0.24767539 84
0.25964308 -1.5803568 -0.19167136 82
0.25706583 -1.5663788 -0.13552718 89
0.26225388 -1.5997384 -0.082676224 88
0.25905281 -1.5819412 -0.027313014 91
0.23228517 -1.420035 0.37504312 16
0.23951007 -1.465809 0.33379978 12
0.24415147 -1.495855 0.28690967 23
0.25648245 -1.5731307 0.24611278 13
0.23350406 -1.4337687 0.17341694 12
0.24288517 -1.4930134 0.12873317 14
0.23599304 -1.4522467 0.074851982 8
0.25684452 -1.5823061 0.027039913 93
0.25625026 -1.5874031 -0.42030698 34
0.25582933 -1.5865552 -0.36189741 103
0.25194526 -1.5642047 -0.30025432 74
0.25475609 -1.5834161 -0.24767539 87
0.25333756 -1.5763534 -0.19106288 82
0.25159657 -1.5672665 -0.13552718 86
0.25666815 -1.600644 -0.082676224 88
0.25273854 -1.5778996 -0.027225751 91
0.22732691 -1.4208373 0.37504312 17
0.23439197 -1.4666359 0.33379978 15
0.23892848 -1.496698 0.28690967 32
0.25098965 -1.5740165 0.24611278 13
0.22849786 -1.4345751 0.17341694 12
0.23767212 -1.493852 0.12873317 13
0.23327337 -1.4678556 0.075634405 15
0.25053588 -1.5782554 0.026953524 94
0.25070766 -1.5882878 -0.42030698 29
0.25028965 -1.5874386 -0.36189741 96
0.24801083 -1.5747719 -0.30216068 85
0.24922739 -1.5842957 -0.24767539 86
0.24783351 -1.5772282 -0.19106288 83
0.24612425 -1.5681353 -0.13552718 87
0.25030595 -1.5965972 -0.082415417 84
0.2472291 -1.5787721 -0.027225751 90
0.22236587 -1.4216222 0.37504312 16
0.22927102 -1.4674453 0.33379978 15
0.23294576 -1.4926735 0.2859565 41
0.24549378 -1.574883 0.24611278 13
0.22348887 -1.4353639 0.17341694 13
0.23245613 -1.4946727 0.12873317 12
0.22891468 -1.4735948 0.075895213 16
0.24502523 -1.5791204 0.026953524 93
0.24442557 -1.5843799 -0.41901374 9
0.24474694 -1.5883026 -0.36189741 91
0.24251235 -1.575628 -0.30216068 86
0.24294524 -1.5802749 -0.24689408 84
0.24232642 -1.5780836 -0.19106288 84
0.24064894 -1.5689849 -0.13552718 89
0.24473126 -1.5974612 -0.082415417 88
0.24171667 -1.5796254 -0.027225751 90
0.21813188 -1.4271641 0.3763364 18
0.22414729 -1.4682366 0.33379978 13
0.22773395 -1.4934775 0.2859565 54
0.24073854 -1.5806127 0.24689408 17
0.21847714 -1.4361354 0.17341694 13
0.22723736 -1.4954749 0.12873317 13
0.22376946 -1.4743849 0.075895213 13
0.23951155 -1.5799662 0.026953524 95
0.23817384 -1.5804476 -0.4177205 7
0.23920123 -1.5891472 -0.36189741 88
0.23701088 -1.5764648 -0.30216068 87
0.23742756 -1.5811133 -0.24689408 85
0.23681641 -1.5789199 -0.19106288 84
0.23517069 -1.5698153 -0.13552718 85
0.23915359 -1.5983058 -0.082415417 88
0.23620127 -1.5804596 -0.027225751 89
0.2131488 -1.4279168 0.3763364 18
0.2183024 -1.4641913 0.33267587 11
0.22251934 -1.4942634 0.2859565 48
0.2352197 -1.5814433 0.24689408 14
0.21346277 -1.4368892 0.17341694 14
0.22201578 -1.496259 0.12873317 13
0.21862154 -1.4751571 0.075895213 14
0.23399501 -1.5807925 0.026953524 95
0.23406172 -1.5908262 -0.42030698 6
0.23365261 -1.5899726 -0.36189741 84
0.23150654 -1.5772825 -0.30216068 88
0.231907 -1.5819325 -0.24689408 87
0.23130351 -1.5797369 -0.19106288 85
0.2296896 -1.5706265 -0.13552718 88
0.233573 -1.5991307 -0.082415417 88
0.230683 -1.5812744 -0.027225751 92
0.20816316 -1.4286522 0.3763364 18
0.21248844 -1.4601233 0.33155197 13
0.21730202 -1.495031 0.2859565 51
0.22969799 -1.5822549 0.24689408 15
0.20844579 -1.4376255 0.17341694 14
0.21607763 -1.4920952 0.12829827 14
0.21275617 -1.4709694 0.075634405 14
0.22776081 -1.5766518 0.026867134 95
0.2223299 -1.5486058 -0.40866768 3
0.22810116 -1.5907785 -0.36189741 84
0.2259994 -1.5780811 -0.30216068 89
0.22638363 -1.5827324 -0.24689408 86
0.22508596 -1.5756218 -0.19045439 85
0.22420569 -1.5714188 -0.13552718 89
0.22728518 -1.5949932 -0.082154609 88
0.2244575 -1.5771207 -0.02713849 91
0.20249528 -1.4245882 0.37504312 20
0.20670554 -1.4560323 0.33042803 15
0.21277112 -1.5006399 0.28690967 50
0.2241735 -1.5830469 0.24689408 16
0.20273128 -1.4334304 0.17280847 14
0.21086793 -1.4928404 0.12829827 14
0.20692274 -1.4667588 0.075373597 15
0.22225589 -1.5774372 0.026867134 95
0.21692288 -1.5493726 -0.40866768 2
0.22254692 -1.591565 -0.36189741 66
0.2204895 -1.5788603 -0.30216068 87
0.22085747 -1.5835129 -0.24689408 87
0.21958466 -1.5763979 -0.19045439 83
0.2180327 -1.5672584 -0.13509139 89
0.22171624 -1.5957768 -0.082154609 87
0.21895094 -1.5778944 -0.02713849 90
0.19685829 -1.4205022 0.37374988 18
0.20028591 -1.4470928 0.32818022 15
0.20753159 -1.5013735 0.28690967 48
0.21797089 -1.5789276 0.24611278 16
0.19772643 -1.4341292 0.17280847 14
0.2049762 -1.4886328 0.12786335 13
0.2011213 -1.4625256 0.07511279 16
0.21674824 -1.5782034 0.026867134 94
0.19388278 -1.4209113 -0.37374988 2
0.21660921 -1.5874668 -0.3607735 45
0.21458985 -1.5747194 -0.30120748 88
0.21560515 -1.5842366 -0.24689408 86
0.21435592 -1.5771174 -0.19045439 85
0.2128343 -1.5679728 -0.13509139 89
0.21642321 -1.5965034 -0.082154609 89
0.21371728 -1.578612 -0.02713849 93
0.19149952 -1.4163609 0.37245664 17
0.19418217 -1.4380927 0.32593241 13
