# .PCD v0.7 - Point Cloud Data file format
VERSION 0.7
FIELDS x y z intensity
SIZE 4 4 4 4
TYPE F F F F
COUNT 1 1 1 1
WIDTH 1332
HEIGHT 1
VIEWPOINT 0 0 0 1 0 0 0
POINTS 1332
DATA ascii
-1.1417221 -1.6000445 0.100672 73
-1.1491694 -1.6098871 0.033519126 75
-0.94377017 -1.3197036 -0.42418674 3
-0.97473037 -1.3624935 -0.37763205 3
-1.0049101 -1.4041613 -0.32789677 11
-1.0428413 -1.4566255 -0.27736521 7
-1.0105441 -1.4109926 -0.20810033 7
-1.0260068 -1.4320546 -0.15077944 12
-1.0519898 -1.4677796 -0.092326134 7
-1.068058 -1.4896495 -0.031327069 8
-1.1370316 -1.5852642 0.51212788 70
-1.1498888 -1.6025993 0.44619027 61
-1.1528373 -1.6061169 0.37650937 71
-1.148571 -1.5995834 0.30549237 73
-1.1485931 -1.5990252 0.23669893 78
-1.1617264 -1.6167133 0.17048445 72
-1.1502148 -1.6001039 0.10093281 73
-1.1577007 -1.6099248 0.033605516 77
-0.94272459 -1.3085636 -0.42160022 4
-0.97663188 -1.3551303 -0.37650815 3
-1.0098054 -1.400645 -0.32789677 8
-1.0479195 -1.4529763 -0.27736521 8
-1.0183669 -1.4114814 -0.20870881 7
-1.0339143 -1.4325033 -0.15121521 12
-1.0629528 -1.4721949 -0.092847757 7
-1.0732515 -1.4859121 -0.031327069 9
-1.1453869 -1.5852004 0.51342118 67
-1.15833 -1.6025243 0.44731417 63
-1.1613128 -1.6060604 0.37746257 70
-1.1570419 -1.599566 0.30627367 75
-1.1570772 -1.5990267 0.2373074 76
-1.1732042 -1.6207179 0.17135428 72
-1.1587216 -1.6001233 0.10119361 72
-1.1662463 -1.6099225 0.033691905 78
-0.93877602 -1.293538 -0.4177205 5
-0.9813562 -1.3517128 -0.37650815 3
-1.0175728 -1.4010831 -0.32884994 10
-1.0558878 -1.453305 -0.27814651 8
-1.0262057 -1.4119326 -0.2093173 7
-1.0418375 -1.4329143 -0.151651 12
-1.0710223 -1.4725137 -0.093108565 7
-1.081373 -1.4861991 -0.03141433 8
-1.1537557 -1.5850978 0.51471442 69
-1.1667845 -1.6024097 0.44843808 61
-1.1726915 -1.6099316 0.37936896 70
-1.1655269 -1.5995088 0.307055 72
-1.1655751 -1.5989887 0.23791587 76
-1.1817892 -1.6206374 0.17178918 72
-1.1672428 -1.6001027 0.10145442 73
-1.1748058 -1.60988 0.033778295 76
-0.94328558 -1.2902533 -0.4177205 5
-0.98606855 -1.3482791 -0.37650815 3
-1.0224574 -1.3975226 -0.32884994 12
-1.0638711 -1.4535956 -0.2789278 8
-1.0340596 -1.4123461 -0.20992577 7
-1.0497762 -1.4332873 -0.15208678 12
-1.0761558 -1.468766 -0.093108565 7
-1.0895095 -1.4864475 -0.031501591 9
-1.1621376 -1.5849556 0.51600766 71
-1.1752524 -1.6022557 0.44956198 59
-1.1812079 -1.6097857 0.38032213 69
-1.1740254 -1.5994116 0.30783629 72
-1.1740869 -1.5989105 0.23852436 73
-1.1903878 -1.6205168 0.17222409 73
-1.1757779 -1.6000421 0.10171524 73
-1.1833791 -1.6097974 0.033864684 77
-0.94491953 -1.2830637 -0.41642722 9
-0.99076885 -1.3448288 -0.37650815 2
-1.0302415 -1.3978963 -0.32980317 10
-1.0689387 -1.4498732 -0.2789278 7
-1.0419291 -1.4127219 -0.21053427 8
-1.0577301 -1.4336221 -0.15252255 12
-1.0872065 -1.4730356 -0.09363018 7
-1.097661 -1.4866571 -0.031588852 8
-1.1705325 -1.5847744 0.5173009 69
-1.1837335 -1.6020619 0.45068586 61
-1.1897374 -1.6095998 0.38127533 71
-1.1854734 -1.6032457 0.30939892 71
-1.1826122 -1.5987922 0.23913284 75
-1.1990001 -1.6203557 0.17265901 72
-1.1843265 -1.5999415 0.10197604 73
-1.1919662 -1.6096745 0.033951074 78
-0.94075954 -1.2681205 -0.41254744 12
-0.99255371 -1.3374498 -0.37538424 2
-1.0380404 -1.3982323 -0.33075634 11
-1.0769377 -1.4500977 -0.27970913 9
-1.0498137 -1.4130601 -0.21114275 8
-1.0656991 -1.4339192 -0.15295833 12
-1.0923418 -1.4692315 -0.09363018 7
-1.1058271 -1.486828 -0.031676114 8
-1.1789404 -1.5845537 0.51859415 72
-1.1922275 -1.6018285 0.45180979 58
-1.19828 -1.6093738 0.38222849 69
-1.1940128 -1.6030586 0.31018025 71
-1.1911511 -1.598634 0.23974133 77
-1.2076257 -1.6201543 0.17309393 70
-1.192889 -1.5998006 0.10223685 70
-1.1975777 -1.6055038 0.033951074 78
-0.9307245 -1.2454841 -0.4060812 14
-0.99721622 -1.333977 -0.37538424 2
-1.0458542 -1.3985312 -0.33170953 10
-1.0849512 -1.4502842 -0.28049043 10
-1.0577135 -1.4133605 -0.21175122 8
-1.073683 -1.4341778 -0.1533941 12
-1.1004568 -1.4694061 -0.093890987 7
-1.1140079 -1.4869598 -0.031763379 9
-1.1873609 -1.5842937 0.51988739 73
-1.2007341 -1.6015552 0.45293367 60
-1.2068355 -1.609108 0.38318169 71
-1.2025651 -1.6028311 0.31096154 69
-1.1997033 -1.5984356 0.2403498 75
-1.2162645 -1.6199121 0.17352884 70
-1.2014648 -1.5996194 0.10249766 70
-1.2061777 -1.6053106 0.034037463 77
-0.92344773 -1.2267925 -0.4009082 18
-0.998936 -1.326596 -0.37426034 2
-1.0507298 -1.3948718 -0.33170953 10
-1.0900071 -1.4464883 -0.28049043 9
-1.0626405 -1.4096597 -0.21175122 8
-1.0816816 -1.4343981 -0.15382989 13
-1.1085863 -1.4695421 -0.094151795 7
-1.122203 -1.4870526 -0.03185064 9
-1.1957939 -1.583994 0.52118063 69
-1.2092534 -1.6012421 0.4540576 58
-1.2154036 -1.6088016 0.38413486 68
-1.2111303 -1.6025637 0.31174287 69
-1.2082684 -1.598197 0.24095827 75
-1.2219117 -1.6156569 0.17352884 69
-1.2100539 -1.5993975 0.10275847 70
-1.2147909 -1.6050767 0.034123853 79
-0.91313392 -1.2043184 -0.39444193 14
-0.98883915 -1.3036921 -0.36864081 2
-1.0585593 -1.395106 -0.33266273 12
-1.0980355 -1.4466083 -0.28127176 8
-1.0705559 -1.4098942 -0.21235971 8
-1.089695 -1.43458 -0.15426567 13
-1.1167302 -1.4696392 -0.094412602 7
-1.1304122 -1.4871061 -0.031937901 9
-1.2071627 -1.5874996 0.52376711 67
-1.2177851 -1.6008887 0.45518148 59
-1.2239842 -1.6084554 0.38508809 68
-1.2197082 -1.6022558 0.31252417 71
-1.2198533 -1.6018664 0.24217525 71
-1.2305623 -1.6153439 0.17396374 69
-1.2186559 -1.5991355 0.10301927 73
-1.2234172 -1.6048023 0.034210242 76
-0.92319524 -1.2088004 -0.39702845 16
-1.0200042 -1.3350756 -0.37875596 2
-1.0664032 -1.3953021 -0.3336159 9
-1.1030784 -1.4427667 -0.28127176 9
-1.0784858 -1.4100907 -0.21296819 8
-1.0977225 -1.4347234 -0.15470144 13
-1.1248883 -1.4696971 -0.09467341 7
-1.1386355 -1.4871205 -0.032025162 10
-1.2156337 -1.5871104 0.52506042 68
-1.2263291 -1.6004955 0.45630541 55
-1.2325771 -1.6080686 0.38604125 68
-1.2282987 -1.6019076 0.31330547 71
-1.2284579 -1.6015364 0.24278374 71
-1.2422581 -1.6189423 0.17483355 72
-1.2272708 -1.5988327 0.10328008 70
-1.2320565 -1.6044872 0.034296632 79
-0.91562945 -1.1902578 -0.39185542 24
-1.0424861 -1.3546737 -0.38549939 2
-1.0712671 -1.3915712 -0.3336159 12
-1.1111212 -1.4428201 -0.28205305 10
-1.0864302 -1.4102491 -0.21357667 8
-1.1057646 -1.4348282 -0.15513723 13
-1.1300116 -1.4657617 -0.09467341 6
-1.1438196 -1.483137 -0.032025162 10
-1.2241166 -1.5866814 0.52635366 67
-1.2378618 -1.603919 0.45855322 58
-1.2411824 -1.6076415 0.38699445 66
-1.2369018 -1.601519 0.31408679 70
-1.2370751 -1.6011658 0.24339221 74
-1.2509475 -1.6185369 0.17526846 71
-1.2358985 -1.5984892 0.1035409 72
-1.2407081 -1.6041312 0.034383021 80
-0.92273688 -1.1908723 -0.39314869 21
-1.0561627 -1.3625786 -0.38887113 2
-1.0791258 -1.3917021 -0.3345691 9
-1.1191776 -1.442835 -0.28283435 9
-1.0943887 -1.4103689 -0.21418515 8
-1.1138206 -1.4348943 -0.155573 13
-1.1381836 -1.4657519 -0.094934218 7
-1.1520565 -1.4830831 -0.032112423 10
-1.2326113 -1.5862128 0.5276469 70
-1.246443 -1.6034347 0.4596771 56
-1.2497997 -1.6071738 0.38794762 67
-1.2455168 -1.6010895 0.31486809 70
-1.2457045 -1.6007541 0.24400067 74
-1.2596495 -1.6180912 0.17570338 69
-1.2445387 -1.5981048 0.1038017 72
-1.2493724 -1.6037343 0.034469411 78
-0.92985988 -1.1914517 -0.39444193 28
-1.0399252 -1.3320017 -0.38100377 2
-1.0869983 -1.3917949 -0.33552229 8
-1.1272478 -1.4428113 -0.28361568 10
-1.1023612 -1.4104505 -0.21479362 8
-1.1188226 -1.4309976 -0.155573 13
-1.1463692 -1.4657032 -0.095195025 7
-1.160307 -1.48299 -0.032199688 10
-1.2411175 -1.5857037 0.52894014 66
-1.2580396 -1.6067463 0.46192494 57
-1.2614554 -1.6105295 0.38985398 64
-1.2541441 -1.6006194 0.31564942 69
-1.2543464 -1.6003022 0.24460918 74
-1.2683635 -1.6176039 0.17613828 70
-1.2531912 -1.5976797 0.10406251 72
-1.2580489 -1.6032963 0.0345558 76
-0.93699783 -1.1919956 -0.39573517 35
-1.04758 -1.3321934 -0.38212767 2
-1.0918499 -1.3879921 -0.33552229 10
-1.1322771 -1.4388676 -0.28361568 8
-1.1103475 -1.4104935 -0.21540211 9
-1.1268924 -1.4309967 -0.15600878 12
-1.1576582 -1.4695373 -0.09571664 7
-1.1685709 -1.4828573 -0.032286949 9
-1.2526255 -1.5889478 0.53152668 70
-1.2666574 -1.6061707 0.46304882 59
-1.2701094 -1.60997 0.39080721 64
-1.2658424 -1.6039854 0.31721202 70
-1.2660751 -1.6037045 0.24582614 72
-1.2770896 -1.6170759 0.17657319 68
-1.2618558 -1.5972135 0.10432332 71
-1.2667376 -1.6028173 0.034642186 76
-0.94415116 -1.1925044 -0.39702845 30
-1.0461739 -1.3208901 -0.37987986 2
-1.0997365 -1.3880196 -0.33647546 8
-1.1403604 -1.4387767 -0.28439698 11
-1.1183478 -1.4104978 -0.21601059 8
-1.1349759 -1.430957 -0.15644456 13
-1.1658844 -1.4693989 -0.095977448 7
-1.1768479 -1.482685 -0.032374211 10
-1.2611675 -1.588348 0.53281993 70
-1.2752868 -1.6055546 0.46417275 58
-1.2818285 -1.6132126 0.39271358 64
-1.2745068 -1.6034231 0.31799331 70
-1.274754 -1.6031598 0.2464346 74
-1.288928 -1.6204045 0.17744301 72
-1.2736416 -1.6006134 0.10484494 70
-1.2754382 -1.6022973 0.034728579 76
-0.94830799 -1.1892014 -0.39702845 33
-1.0507784 -1.3172302 -0.37987986 2
-1.1045748 -1.3841723 -0.33647546 8
-1.1484569 -1.4386472 -0.2851783 9
-1.1263613 -1.4104636 -0.21661907 8
-1.1430728 -1.4308779 -0.15688033 12
-1.1741236 -1.4692208 -0.096238256 7
-1.185138 -1.4824728 -0.032461476 10
-1.2697208 -1.5877081 0.53411317 66
-1.2839268 -1.6048975 0.46529663 58
-1.2905189 -1.6125604 0.39366677 65
-1.2831825 -1.6028197 0.31877464 67
-1.2834448 -1.602574 0.24704309 74
-1.2976905 -1.6197827 0.17787792 70
-1.2823435 -1.6000539 0.10510574 70
-1.2841506 -1.6017358 0.034814965 75
-0.95547777 -1.1896497 -0.39832169 34
-1.0309578 -1.28317 -0.37088862 2
-1.1124746 -1.3841341 -0.33742866 8
-1.1565661 -1.4384782 -0.2859596 11
-1.1343882 -1.4103904 -0.21722755 9
-1.1511831 -1.4307601 -0.15731612 12
-1.1823758 -1.4690031 -0.096499063 7
-1.1934408 -1.4822208 -0.032548737 10
-1.2813146 -1.5907891 0.53669971 66
-1.292578 -1.6041998 0.46642056 55
-1.2992201 -1.6118674 0.39461994 66
-1.2918694 -1.6021752 0.31955594 68
-1.2921466 -1.6019469 0.24765156 73
-1.3064648 -1.6191195 0.17831282 70
-1.2910572 -1.5994534 0.10536655 71
-1.2960151 -1.6050224 0.034987744 71
-0.95962459 -1.1863071 -0.39832169 29
-1.0568839 -1.3060749 -0.37875596 2
-1.1234758 -1.3878723 -0.33933502 6
-1.1646882 -1.4382703 -0.2867409 9
-1.1424285 -1.4102783 -0.21783602 8
-1.1593063 -1.4306028 -0.15775189 12
-1.1906408 -1.4687458 -0.096759871 7
-1.2017562 -1.4819287 -0.032635998 10
-1.2899024 -1.5900577 0.53799289 66
-1.3043098 -1.6072444 0.46866837 55
-1.3110257 -1.6149436 0.39652634 66
-1.3005675 -1.6014898 0.32033727 65
-1.3008599 -1.6012788 0.24826005 71
-1.31525 -1.6184149 0.17874774 67
-1.2997822 -1.5988113 0.10562735 67
-1.3047642 -1.6043675 0.035074137 75
-0.96681029 -1.1866945 -0.39961493 31
-1.0675925 -1.3099312 -0.38100377 2
-1.131415 -1.3877463 -0.34028822 9
-1.1728231 -1.4380231 -0.28752223 11
-1.1504816 -1.4101273 -0.21844451 8
-1.1642929 -1.4265473 -0.15775189 13
-1.1957604 -1.4645807 -0.096759871 7
-1.2132466 -1.4854686 -0.032810524 10
-1.2985009 -1.5892857 0.5392862 65
-1.3129954 -1.6064538 0.46979225 59
-1.3197618 -1.6141576 0.39747953 61
-1.3124032 -1.6045859 0.32189989 66
-1.3095841 -1.600569 0.24886853 73
-1.3272011 -1.6215229 0.17961757 70
-1.3085185 -1.5981281 0.10588817 72
-1.3135242 -1.6036706 0.035160523 73
-0.97094673 -1.1833125 -0.39961493 29
-1.0783408 -1.3137282 -0.38325158 2
-1.1424819 -1.3913752 -0.34219459 8
-1.1809702 -1.4377367 -0.28830352 11
-1.1585476 -1.4099371 -0.21905299 7
-1.1724285 -1.4263222 -0.15818767 13
-1.2072083 -1.4681114 -0.097281493 7
-1.2152486 -1.4773638 -0.032723259 10
-1.3071094 -1.5884727 0.54057944 64
-1.3247877 -1.6093839 0.47204006 53
-1.3285083 -1.6133298 0.3984327 67
-1.3211362 -1.6038067 0.32268122 67
-1.3214755 -1.6036481 0.2500855 70
-1.3360217 -1.6207237 0.18005246 69
-1.3204426 -1.6012555 0.10640979 69
-1.3254766 -1.6067886 0.035333302 73
-0.97507137 -1.1799161 -0.39961493 29
-1.0891284 -1.3174663 -0.38549939 2
-1.1442038 -1.3835963 -0.34124142 8
-1.1891296 -1.4374107 -0.28908485 10
-1.1666262 -1.4097078 -0.21966147 8
-1.1805764 -1.4260579 -0.15862344 14
-1.2155102 -1.4677342 -0.097542301 7
-1.2299662 -1.4846621 -0.032985047 10
-1.31881 -1.591338 0.54316592 66
-1.3335069 -1.6085006 0.47316399 53
-1.3372649 -1.6124606 0.3993859 67
-1.3298796 -1.602986 0.32346252 64
-1.3302348 -1.6028446 0.25069398 72
-1.3448526 -1.6198828 0.18048738 70
-1.329214 -1.6004776 0.10667059 71
-1.3342721 -1.6059976 0.035419695 73
-0.98227376 -1.1802176 -0.4009082 29
-1.0999552 -1.3211447 -0.3877472 2
-1.1396029 -1.3682795 -0.33838186 12
-1.197301 -1.4370455 -0.28986615 12
-1.1747173 -1.4094392 -0.22026995 7
-1.1887367 -1.4257538 -0.15905923 12
-1.2270225 -1.4711512 -0.098063923 7
-1.2863848 -1.541777 -0.034381237 8
-1.3274518 -1.5904329 0.54445922 67
-1.3422362 -1.6075757 0.47428787 56
-1.3491783 -1.6153172 0.40129229 64
-1.3386338 -1.6021241 0.32424384 65
-1.3390042 -1.6019994 0.25130248 70
-1.3536938 -1.6189997 0.18092228 68
-1.3379962 -1.5996581 0.1069314 68
-1.3462861 -1.6089984 0.035592474 74
-0.98638761 -1.1767817 -0.4009082 29
-1.1108211 -1.3247639 -0.38999504 3
-1.1380634 -1.3567719 -0.33647546 6
-1.1991357 -1.429074 -0.28908485 9
-1.1828208 -1.4091314 -0.22087842 7
-1.1969093 -1.4254103 -0.15949501 11
-1.2257272 -1.4592125 -0.097542301 6
-1.3464329 -1.6023431 -0.035864696 36
-1.3361031 -1.5894866 0.54575241 67
-1.3541106 -1.6103384 0.47653568 53
-1.3579682 -1.6143539 0.40224546 64
-1.3473977 -1.6012201 0.32502511 67
-1.347784 -1.6011121 0.25191092 70
-1.3625454 -1.6180748 0.1813572 68
-1.3500056 -1.6026155 0.10745302 69
-1.3551159 -1.6081123 0.035678864 73
-0.99360484 -1.177022 -0.40220144 29
-1.1217254 -1.328323 -0.39224282 3
-1.1332902 -1.3415427 -0.3336159 6
-1.200929 -1.4211076 -0.28830352 13
-1.1941402 -1.4125741 -0.22209539 6
-1.205094 -1.425027 -0.15993078 11
-1.2243637 -1.4473009 -0.097020686 4
-1.3617064 -1.609082 -0.03612648 36
-1.344764 -1.5884994 0.54704571 66
-1.3628722 -1.6093202 0.47765961 53
-1.3667679 -1.613349 0.40319866 60
-1.3593645 -1.6040423 0.32658774 66
-1.3565741 -1.6001834 0.25251943 72
-1.3746287 -1.6209064 0.18222702 68
-1.3588219 -1.601701 0.10771383 67
-1.3639557 -1.6071839 0.035765253 71
-0.99770731 -1.1735464 -0.40220144 29
-1.1295116 -1.3281108 -0.39336672 3
-1.1475077 -1.3487939 -0.33647546 6
-1.2058824 -1.416907 -0.28830352 7
-1.2022809 -1.4121759 -0.22270387 16
-1.2132906 -1.4246037 -0.16036656 9
-1.281219 -1.503831 -0.10119361 13
-1.3640722 -1.6005141 -0.036039218 35
-1.3565679 -1.5911465 0.54963219 64
-1.3716429 -1.6082598 0.47878349 51
-1.3787626 -1.6160362 0.40510502 60
-1.3681614 -1.603044 0.32736906 63
-1.3685963 -1.6029869 0.25373638 67
-1.3835132 -1.6198858 0.18266192 65
-1.367648 -1.6007442 0.10797463 69
-1.3760538 -1.6100136 0.035938032 74
-1.004939 -1.1737256 -0.40349469 28
-1.1373099 -1.3278601 -0.39449063 3
-1.1554024 -1.3485073 -0.33742866 7
-1.207607 -1.4089392 -0.28752223 9
-1.2168941 -1.4192734 -0.22452931 12
-1.218256 -1.4203598 -0.16036656 9
-1.3319806 -1.5524026 -0.10484494 14
-1.3761626 -1.6033299 -0.036213744 37
-1.36526 -1.5900657 0.55092543 63
-1.3804229 -1.6071578 0.47990742 52
-1.3875939 -1.6149364 0.40605819 64
-1.3769679 -1.6020037 0.32815036 64
-1.3774191 -1.6019628 0.25434485 68
-1.3956555 -1.6225992 0.18353173 64
-1.3764843 -1.5997458 0.10823545 67
-1.3849268 -1.6089896 0.036024421 72
-1.0090299 -1.1702105 -0.40349469 27
-1.1451205 -1.3275714 -0.39561453 3
-1.1633091 -1.3481822 -0.33838186 8
-1.2125177 -1.4047154 -0.28752223 7
-1.2218409 -1.4150169 -0.22452931 11
-1.2557664 -1.453793 -0.16472435 6
-1.3373913 -1.5477437 -0.10484494 16
-1.3882893 -1.6060805 -0.036388267 37
-1.3739613 -1.5889441 0.55221874 61
-1.3923993 -1.6096992 0.48215523 57
-1.3964345 -1.6137947 0.40701142 62
-1.3857838 -1.6009215 0.32893169 64
-1.3862513 -1.6008967 0.25495335 67
-1.4045722 -1.6214825 0.18396665 63
-1.3885998 -1.6024783 0.10875706 66
-1.397084 -1.6117007 0.0361972 71
-1.0162753 -1.170328 -0.40478793 28
-1.1527109 -1.3274454 -0.39673844 3
-1.1709921 -1.3480225 -0.33933502 9
-1.223648 -1.4081422 -0.28908485 9
-1.2265265 -1.4109573 -0.22452931 9
-1.2867281 -1.4796897 -0.16821058 9
-1.3523477 -1.5546019 -0.10562735 12
-1.3968894 -1.6052393 -0.036475528 37
-1.3855652 -1.5916647 0.55480522 62
-1.400929 -1.6087471 0.48327911 54
-1.4050022 -1.6128558 0.40796459 62
-1.3975742 -1.6037637 0.33049431 66
-1.3980749 -1.603773 0.2561703 71
-1.416489 -1.6243241 0.18483648 64
-1.3971883 -1.6016272 0.10901786 65
-1.4057076 -1.6108253 0.03628359 72
-1.0201507 -1.1669514 -0.40478793 27
-1.1573375 -1.3234136 -0.39673844 3
-1.1789223 -1.347621 -0.34028822 6
-1.2253035 -1.400146 -0.28830352 7
-1.2739408 -1.4552108 -0.23243956 7
-1.3148563 -1.5014194 -0.17126103 10
-1.3577662 -1.5498718 -0.10562735 12
-1.4090741 -1.6078728 -0.03665005 38
-1.3942964 -1.5904503 0.55609846 65
-1.4097486 -1.6075103 0.48440304 53
-1.4170974 -1.6153212 0.40987095 60
-1.4064213 -1.6025873 0.33127561 62
-1.4069386 -1.6026125 0.25677878 67
-1.4254372 -1.6231123 0.18527137 63
-1.4093617 -1.6042428 0.10953948 68
-1.4179223 -1.6134191 0.036456369 71
-1.0242177 -1.1633834 -0.40478793 27
-1.1651701 -1.3230219 -0.39786234 3
-1.1836191 -1.3434976 -0.34028822 5
-1.2301834 -1.3958603 -0.28830352 7
-1.3118324 -1.4879818 -0.23852436 9
-1.3266785 -1.5042921 -0.17213258 10
-1.3631679 -1.545123 -0.10562735 12
-1.417986 -1.6066928 -0.036737315 35
-1.4030364 -1.5891945 0.5573917 60
-1.4218014 -1.609883 0.48665082 51
-1.4259771 -1.614043 0.41082415 59
-1.4185476 -1.6050692 0.33283821 60
-1.4190985 -1.6051277 0.25799572 67
-1.437694 -1.625589 0.18614119 63
-1.4182615 -1.603053 0.10980029 65
-1.4268589 -1.6122035 0.036542758 68
-1.0314767 -1.1634151 -0.4060812 32
-1.1697812 -1.3189466 -0.39786234 3
-1.1883016 -1.3393579 -0.34028822 5
-1.2416048 -1.3989449 -0.28986615 6
-1.3367882 -1.5056609 -0.24217525 11
-1.3385369 -1.5071006 -0.17300415 11
-1.368553 -1.5403551 -0.10562735 12
-1.4302281 -1.6092067 -0.036911838 35
-1.4149936 -1.5915064 0.55997825 63
-1.4306502 -1.6085507 0.48777473 48
-1.4381275 -1.6163896 0.41273054 62
-1.4307085 -1.6074858 0.33440083 63
-1.4279929 -1.603871 0.25860423 67
-1.4466726 -1.6242803 0.18657611 60
-1.4271702 -1.6018207 0.11006109 65
-1.4360851 -1.6106943 0.036629148 71
-1.0357338 -1.1596267 -0.4060812 26
-1.174378 -1.3148553 -0.39786234 3
-1.1962399 -1.3388618 -0.34124142 7
-1.2991378 -1.453517 -0.30236712 9
-1.3420358 -1.5009855 -0.24217525 11
-1.3437895 -1.5024189 -0.17300415 11
-1.3739216 -1.5355686 -0.10562735 12
-1.4391706 -1.6079296 -0.036999099 37
-1.4237618 -1.5901555 0.56127143 63
-1.4395069 -1.6071761 0.48889863 49
-1.4470364 -1.6150154 0.41368371 60
-1.4396073 -1.6061594 0.33518216 62
-1.4402088 -1.6062667 0.25982118 67
-1.4556593 -1.6229285 0.187011 61
-1.4360876 -1.6005458 0.11032191 64
-1.4447579 -1.6096438 0.036715537 69
-1.0395738 -1.1561857 -0.4060812 25
-1.1822188 -1.3143703 -0.39898625 3
-1.1976231 -1.3310293 -0.34028822 4
-1.357066 -1.5077037 -0.31486809 14
-1.350588 -1.4999799 -0.24278374 11
-1.3490257 -1.497719 -0.17300415 10
-1.3826159 -1.5344731 -0.10588817 11
-1.4481217 -1.6066096 -0.037086364 35
-1.4357727 -1.5923502 0.56385797 61
-1.4483715 -1.6057593 0.49002257 51
-1.4559534 -1.6135986 0.41463691 60
-1.4518231 -1.6084567 0.33674479 65
-1.449133 -1.6049131 0.26042965 67
-1.467993 -1.6252303 0.18788083 63
-1.4483608 -1.6029328 0.11084352 65
-1.4537201 -1.6082996 0.036801927 69
-1.046845 -1.1561301 -0.40737444 25
-1.193341 -1.3174576 -0.40123406 3
-1.2220364 -1.3486642 -0.34600735 6
-1.3656375 -1.5066166 -0.31564942 12
-1.3558155 -1.4952564 -0.24278374 11
-1.3542454 -1.493001 -0.17300415 10
-1.3879638 -1.5296373 -0.10588817 11
-1.460441 -1.6089482 -0.037260886 36
-1.444569 -1.5909042 0.56515121 63
-1.4605194 -1.6079066 0.49227038 54
-1.4681785 -1.6157719 0.41654328 59
-1.4607503 -1.6070334 0.33752608 62
-1.4580653 -1.6035168 0.26103815 66
-1.4770089 -1.623781 0.18831575 61
-1.4573078 -1.6015604 0.11110433 60
-1.4660555 -1.6106092 0.036974706 72
-1.0508742 -1.152469 -0.40737444 26
-1.2077825 -1.3240823 -0.40460578 5
-1.213503 -1.3298874 -0.34219459 5
-1.3742176 -1.505488 -0.31643069 13
-1.3643733 -1.4941794 -0.24339221 10
-1.3594488 -1.4882646 -0.17300415 10
-1.3966628 -1.5284691 -0.10614897 11
-1.4694213 -1.6075305 -0.037348147 34
-1.456632 -1.5929809 0.5677377 59
-1.4694115 -1.6063935 0.49339426 53
-1.4771234 -1.6142582 0.4174965 63
-1.4730203 -1.6092103 0.33908871 61
-1.4703567 -1.6057378 0.2622551 67
-1.489397 -1.6259614 0.18918556 59
-1.4662628 -1.600145 0.11136515 62
-1.4750469 -1.6091672 0.037061095 71
-1.0581574 -1.1523513 -0.40866768 29
-1.218989 -1.3270344 -0.40685359 9
-1.228101 -1.3364857 -0.34505415 6
-1.3828067 -1.5043179 -0.31721202 13
-1.3729396 -1.4930607 -0.24400067 11
-1.3680077 -1.4871761 -0.17343993 10
-1.4019898 -1.5235845 -0.10614897 11
-1.4784095 -1.6060696 -0.037435409 34
-1.4687271 -1.5949926 0.57032424 62
-1.4816117 -1.6084213 0.49564207 48
-1.4894013 -1.6163113 0.41940287 59
-1.4819758 -1.6076901 0.33987004 57
-1.4826815 -1.6078923 0.26347208 66
-1.498441 -1.6244137 0.18962048 57
-1.4786117 -1.6023562 0.11188676 63
-1.4874368 -1.6113555 0.037233874 69
-1.0621735 -1.1486506 -0.40866768 31
-1.2302305 -1.3299242 -0.4091014 11
nan nan nan 0
-1.3880492 -1.4994818 -0.31721202 13
-1.3781431 -1.4882592 -0.24400067 10
-1.3731905 -1.4823918 -0.17343993 10
-1.4072995 -1.5186815 -0.10614897 11
-1.4908038 -1.6082318 -0.037609935 34
-1.4808539 -1.5969388 0.57291073 59
-1.4905306 -1.6068115 0.496766 52
-1.4983727 -1.6147002 0.42035604 57
-1.4909387 -1.6061268 0.34065136 60
-1.4916619 -1.6063435 0.26408052 65
-1.5074922 -1.6228228 0.19005539 56
-1.487595 -1.6008428 0.11214756 63
-1.4964561 -1.6098151 0.03732026 69
-1.0661765 -1.1449358 -0.40866768 31
-1.244828 -1.3363166 -0.41247311 12
-1.4783278 -1.5864223 -0.41368371 39
-1.3966424 -1.4982399 -0.31799331 13
-1.3867145 -1.4870691 -0.24460918 10
-1.3817543 -1.4812317 -0.1738757 10
-1.4159988 -1.5174105 -0.10640979 11
-1.4998199 -1.6066724 -0.037697192 33
-1.4897158 -1.5952902 0.57420403 61
-1.5027821 -1.6087195 0.49901381 50
-1.5107025 -1.6166325 0.4222624 60
-1.4999083 -1.6045203 0.34143266 58
-1.5040396 -1.6083769 0.26529753 67
-1.5199533 -1.6248258 0.1909252 56
-1.4999973 -1.602932 0.11266918 60
-1.5088993 -1.611881 0.037493039 70
-1.0701666 -1.1412072 -0.40866768 26
-1.2528181 -1.3355166 -0.41359702 9
-1.5174437 -1.6170441 -0.42321563 48
-1.4018638 -1.4933555 -0.31799331 13
-1.391897 -1.4822196 -0.24460918 10
-1.3869164 -1.4763994 -0.1738757 10
-1.4212869 -1.5124584 -0.10640979 10
-1.5088433 -1.6050699 -0.037784457 32
-1.5018928 -1.5971175 0.57679051 60
-1.5117265 -1.6070125 0.50013769 48
-1.5197001 -1.6149238 0.42321563 61
-1.5122703 -1.6064667 0.34299526 60
-1.5130471 -1.6067299 0.26590598 64
-1.5290312 -1.623136 0.19136012 59
-1.509008 -1.6013203 0.11292999 65
-1.5179458 -1.6102418 0.037579432 68
-1.0741438 -1.1374648 -0.40866768 27
-1.2574724 -1.3311352 -0.41359702 7
-1.5230789 -1.6117374 -0.42321563 62
-1.407068 -1.488453 -0.31799331 13
-1.400472 -1.4809576 -0.24521764 10
-1.3920615 -1.4715492 -0.1738757 9
-1.4265578 -1.5074883 -0.10640979 10
-1.5213106 -1.6070544 -0.037958983 32
-1.5107795 -1.5953721 0.57808375 59
-1.5240281 -1.6087998 0.5023855 49
-1.5320802 -1.6167347 0.42512199 60
-1.5212663 -1.6047622 0.34377658 57
-1.5254762 -1.6086408 0.26712295 61
-1.5415438 -1.6250162 0.19222994 57
-1.5214624 -1.6032871 0.11345161 61
-1.5304412 -1.6121849 0.037752211 70
-1.0781076 -1.1337082 -0.40866768 26
-1.2654693 -1.3302677 -0.41472092 6
-1.5354629 -1.6135224 -0.42512199 60
-1.4156603 -1.4871093 -0.31877464 13
-1.405633 -1.47606 -0.24521764 10
-1.4006252 -1.4702874 -0.17431149 9
-1.4318111 -1.5024993 -0.10640979 10
-1.5303605 -1.6053529 -0.038046245 32
-1.5230055 -1.5970792 0.58067024 62
-1.5363603 -1.6105206 0.50463331 46
-1.5411028 -1.6149276 0.42607516 61
-1.533679 -1.6065866 0.34533921 59
-1.5345097 -1.6068952 0.26773143 65
-1.5506475 -1.6232271 0.19266483 59
-1.5304995 -1.6015762 0.11371242 62
-1.5395141 -1.6104467 0.037838601 68
-1.0853989 -1.1334264 -0.40996096 31
-1.2768458 -1.3328787 -0.4169687 4
-1.5444816 -1.6116965 -0.42607516 63
-1.4208426 -1.4821588 -0.31877464 13
-1.4107769 -1.4711444 -0.24521764 10
-1.405749 -1.4653894 -0.17431149 9
-1.4405043 -1.5010948 -0.10667059 10
-1.5394167 -1.6036073 -0.038133506 31
-1.5319165 -1.5952369 0.58196354 60
-1.5487231 -1.612175 0.50688112 44
-1.5501317 -1.6130775 0.42702836 57
-1.5427002 -1.6047835 0.34612051 57
-1.5469894 -1.6086833 0.26894841 64
-1.5632107 -1.6249838 0.19353466 59
-1.5430053 -1.6034198 0.11423404 62
-1.5520605 -1.6122661 0.03801138 70
-1.0893487 -1.1296308 -0.40996096 30
-1.2950209 -1.3424394 -0.42146435 3
-1.5535066 -1.6098275 -0.42702836 58
-1.4294375 -1.4807429 -0.31955594 13
-1.4193512 -1.4697812 -0.24582614 9
-1.4108557 -1.4604737 -0.17431149 9
-1.4457355 -1.4960573 -0.10667059 10
-1.5519544 -1.6054127 -0.038308028 30
-1.5441906 -1.5968239 0.58455002 57
-1.5611162 -1.6137626 0.50912893 46
-1.5625795 -1.6147112 0.42893475 57
-1.5551624 -1.6064855 0.34768313 57
-1.5560477 -1.6068386 0.26955688 61
-1.5723391 -1.6230949 0.19396958 57
-1.5555426 -1.6051954 0.11475565 59
-1.5646383 -1.6140176 0.038184159 70
-1.09665 -1.1292863 -0.4112542 31
-1.3166729 -1.3553836 -0.42708388 10
-1.5625371 -1.6079147 -0.42798153 40
-1.4345975 -1.4757442 -0.31955594 12
-1.424473 -1.4648178 -0.24582614 9
-1.4159452 -1.4555399 -0.17431149 9
-1.4544312 -1.4945804 -0.1069314 10
-1.5610362 -1.603568 -0.038395293 30
-1.5531248 -1.5948839 0.58584327 57
-1.5701395 -1.6117933 0.51025283 41
-1.5716319 -1.612762 0.42988792 57
-1.5642079 -1.6045834 0.34846446 56
-1.5685769 -1.6085033 0.27077383 62
-1.5849515 -1.6247274 0.19483939 52
-1.5646234 -1.6033292 0.11501645 59
-1.577247 -1.6157006 0.038356937 68
-1.1039622 -1.1289046 -0.41254744 32
-1.3248031 -1.3542621 -0.42820778 15
-1.5681403 -1.6024506 -0.42798153 34
-1.4431951 -1.4742569 -0.32033727 12
-1.4295776 -1.4598365 -0.24582614 9
-1.4245027 -1.4541465 -0.17474726 9
-1.4596393 -1.4894942 -0.1069314 10
-1.5736234 -1.605249 -0.038569819 28
-1.5620643 -1.5929013 0.58713651 57
-1.5825799 -1.6132587 0.51250064 39
-1.5841275 -1.6142726 0.43179429 56
-1.5767188 -1.606162 0.35002708 57
-1.5776594 -1.6065593 0.27138233 64
-1.5975946 -1.6262918 0.19570921 53
-1.5772102 -1.6049807 0.11553808 61
-1.5863817 -1.6137502 0.038443327 68
-1.1112849 -1.1284854 -0.41384071 33
-1.3158458 -1.3357462 -0.42371216 15
-1.5737243 -1.596967 -0.42798153 31
-1.4483323 -1.4692103 -0.32033727 12
-1.4346646 -1.4548376 -0.24582614 9
-1.42957 -1.4491651 -0.17474726 9
-1.4683372 -1.4879441 -0.10719222 10
-1.5862414 -1.6068618 -0.038744342 28
-1.5744023 -1.5943122 0.58972305 57
-1.5950494 -1.6146566 0.51474845 43
-1.5966529 -1.6157157 0.43370065 58
-1.5857877 -1.6041607 0.35080835 59
-1.5902369 -1.6081001 0.27259928 62
-1.6102676 -1.6277876 0.19657902 55
-1.5898273 -1.6065637 0.11605969 59
-1.5990393 -1.6153086 0.038616106 66
-1.1186182 -1.1280291 -0.41513398 36
-1.3170692 -1.327686 -0.42258826 20
-1.5758319 -1.5879802 -0.42702836 14
-1.453452 -1.4641457 -0.32033727 12
-1.4397341 -1.4498208 -0.24582614 9
-1.4346198 -1.4441662 -0.17474726 8
-1.4735219 -1.4828097 -0.10719222 9
-1.5988897 -1.6084059 -0.038918864 26
-1.5833637 -1.5922315 0.59101623 57
-1.604112 -1.6125331 0.51587236 40
-1.6092073 -1.6170906 0.43560702 54
-1.5983459 -1.6056154 0.35237098 57
-1.5993425 -1.6060557 0.27320775 62
-1.6229706 -1.6292144 0.19744885 54
-1.5989504 -1.6045414 0.11632051 60
-1.6081977 -1.6132578 0.038702495 68
-1.1293747 -1.1309527 -0.4177205 36
-1.3182524 -1.3196336 -0.42146435 13
-1.5293231 -1.5303912 -0.41273054 7
-1.4620456 -1.462556 -0.32111859 12
-1.4447862 -1.4447862 -0.24582614 9
-1.4396522 -1.4391496 -0.17474726 8
-1.4822208 -1.4811863 -0.10745302 10
-1.6080309 -1.6063479 -0.039006125 26
-1.595747 -1.5935205 0.59360272 57
-1.616627 -1.6138079 0.51812023 40
-1.6183168 -1.6149309 0.43656024 51
-1.6109334 -1.607002 0.3539336 55
-1.6119672 -1.6074719 0.2744247 60
-1.6321754 -1.627056 0.19788374 53
-1.6116152 -1.6059995 0.11684212 58
-1.6209027 -1.6146907 0.038875274 65
-1.1367402 -1.1304091 -0.41901374 39
-1.3159403 -1.3081545 -0.41921654 13
-1.4859138 -1.4766066 -0.3993859 4
-1.4671419 -1.4574436 -0.32111859 12
-1.4498208 -1.4397341 -0.24582614 9
-1.4482019 -1.4376247 -0.17518304 8
-1.4873821 -1.4760034 -0.10745302 9
-1.6207267 -1.6077666 -0.039180648 25
-1.6081589 -1.5947425 0.59618932 54
-1.6257105 -1.611585 0.51924407 43
-1.630917 -1.6161817 0.43846661 52
-1.6235503 -1.6083202 0.35549623 54
-1.6210948 -1.6053276 0.27503321 62
-1.6449248 -1.6283572 0.19875357 49
-1.6243095 -1.6073883 0.11736374 61
-1.6300831 -1.6125385 0.038961664 65
-1.1441158 -1.129828 -0.42030698 37
-1.3170314 -1.3001302 -0.41809264 15
-1.4596163 -1.4403826 -0.39080721 3
-1.4757363 -1.4557817 -0.32189989 12
-1.458371 -1.4381491 -0.2464346 9
-1.4532113 -1.4325608 -0.17518304 8
-1.4960818 -1.4743074 -0.10771383 9
-1.6298906 -1.605608 -0.039267913 21
-1.6205986 -1.5958972 0.5987758 53
-1.6382699 -1.6127361 0.52149189 39
-1.6435452 -1.6173643 0.440373 56
-1.6326751 -1.6061066 0.35627756 52
-1.6337657 -1.6066185 0.27625015 58
-1.6541508 -1.6260972 0.19918849 52
-1.633472 -1.6052084 0.11762454 55
-1.6428345 -1.6138455 0.039134443 65
-1.1515012 -1.1292092 -0.42160022 38
-1.3180823 -1.2921144 -0.4169687 16
-1.4926804 -1.4627618 -0.3984327 4
-1.480809 -1.4506216 -0.32189989 11
-1.4633821 -1.4330498 -0.2464346 8
-1.4617624 -1.4309639 -0.17561881 8
-1.501219 -1.4690762 -0.10771383 9
-1.6390588 -1.6034046 -0.039355174 19
-1.6330656 -1.5969841 0.60136229 51
-1.6508576 -1.6138192 0.5237397 43
-1.6526915 -1.6150482 0.4413262 58
-1.645337 -1.6072999 0.35784018 52
-1.6464652 -1.6078405 0.27746713 60
-1.6669456 -1.6272722 0.2000583 47
-1.6462125 -1.6064713 0.11814615 55
-1.655615 -1.615083 0.039307222 64
-1.158896 -1.1285523 -0.42289349 40
-1.3156025 -1.2807087 -0.41472092 18
-1.5259184 -1.4849274 -0.40605819 10
-1.4858634 -1.4454439 -0.32189989 12
-1.4719335 -1.4313928 -0.24704309 8
-1.4667485 -1.4258527 -0.17561881 8
-1.5063379 -1.4638269 -0.10771383 9
-1.6482316 -1.6011568 -0.039442439 18
-1.64556 -1.5980036 0.60394883 55
-1.6634723 -1.6148341 0.52598751 43
-1.6653638 -1.6161058 0.44323257 57
-1.6580268 -1.6084241 0.35940278 53
-1.659193 -1.6089933 0.27868408 57
-1.6797687 -1.6283777 0.20092812 49
-1.6589814 -1.6076649 0.11866777 55
-1.6648335 -1.6127725 0.039393611 65
-1.1697723 -1.1312152 -0.42547998 63
-1.3130593 -1.269336 -0.41247311 24
-1.5416811 -1.4898245 -0.40891778 6
-1.4944519 -1.4436796 -0.32268122 11
-1.4804908 -1.4296935 -0.24765156 8
-1.4753004 -1.4241836 -0.1760546 8
-1.5150313 -1.4620271 -0.10797463 9
-1.6610066 -1.6023356 -0.039616961 16
-1.6580815 -1.598955 0.60653532 51
-1.6726066 -1.612399 0.52711141 39
-1.6780634 -1.6170944 0.44513896 57
-1.6707445 -1.6094791 0.3609654 57
-1.6719489 -1.6100769 0.27990103 56
-1.6926194 -1.6294132 0.20179793 51
-1.6681811 -1.6053264 0.11892858 54
-1.6776584 -1.613883 0.03956639 60
-1.1771975 -1.1304705 -0.42677325 74
-1.3104527 -1.2579968 -0.4102253 26
-1.553955 -1.491231 -0.41082415 4
-1.499482 -1.4384542 -0.32268122 11
-1.4890544 -1.4279519 -0.24826005 8
-1.4838583 -1.422472 -0.17649037 8
-1.5201256 -1.4567298 -0.10797463 9
-1.6701996 -1.5999861 -0.039704222 16
-1.6706294 -1.5998386 0.6091218 54
-1.6852634 -1.6132888 0.52935922 43
-1.6907902 -1.6180141 0.44704533 51
-1.6834897 -1.610465 0.36252803 51
-1.6847324 -1.6110908 0.28111801 60
-1.7054981 -1.6303788 0.20266776 47
-1.6809943 -1.606393 0.1194502 56
-1.6868966 -1.6114701 0.03965278 66
-1.1846316 -1.1296874 -0.42806649 74
-1.3077831 -1.2466915 -0.40797749 28
-1.5698105 -1.4959556 -0.41368371 6
-1.5044941 -1.4332112 -0.32268122 11
-1.49403 -1.4227455 -0.24826005 8
-1.4888146 -1.4172837 -0.17649037 8
-1.5252012 -1.4514146 -0.10797463 8
-1.6830187 -1.6010375 -0.039878745 16
-1.6832035 -1.6006538 0.61170834 54
-1.6979469 -1.6141098 0.53160703 39
-1.7035438 -1.6188647 0.44895169 57
-1.6926818 -1.6079803 0.36330935 51
-1.6975435 -1.6120352 0.28233495 57
-1.7147912 -1.6278449 0.20310266 49
-1.6938354 -1.6073896 0.11997182 56
-1.6997654 -1.6124535 0.039825562 61
-1.1885679 -1.1255456 -0.42806649 63
-1.3085887 -1.2387695 -0.40685359 31
-1.5964136 -1.5107092 -0.41940287 10
-1.5130752 -1.4313445 -0.32346252 10
-1.5025929 -1.4209316 -0.24886853 8
-1.4973725 -1.4154998 -0.17692617 8
-1.5302583 -1.4460818 -0.10797463 8
-1.6958653 -1.602019 -0.040053267 15
-1.6993152 -1.6047168 0.61558807 57
-1.7071135 -1.6115173 0.53273094 40
-1.7163241 -1.6196457 0.45085809 54
-1.705469 -1.6088395 0.36487198 49
-1.7067708 -1.6095046 0.28294346 55
-1.7277119 -1.6286829 0.20397249 47
-1.7067037 -1.6083163 0.12049343 55
-1.7126615 -1.6133662 0.039998341 61
-1.1854525 -1.1147724 -0.42547998 59
-1.3058053 -1.2275201 -0.40460578 31
-1.6517525 -1.5521842 -0.43274748 12
-1.5180624 -1.4260542 -0.32346252 11
-1.5075437 -1.4156778 -0.24886853 8
-1.5023043 -1.4102644 -0.17692617 7
-1.538938 -1.4441484 -0.10823545 8
-1.7087395 -1.6029303 -0.040227797 14
-1.7119526 -1.6053829 0.61817455 65
-1.7198374 -1.6122129 0.53497875 39
-1.72913 -1.620357 0.45276445 58
-1.7182829 -1.6096292 0.3664346 50
-1.7196237 -1.6103216 0.28416041 57
-1.7406594 -1.6294502 0.2048423 49
-1.7159531 -1.6057606 0.12075425 55
-1.7255845 -1.6142085 0.04017112 63
-1.1858064 -1.1073312 -0.42418674 55
-1.3065207 -1.2196299 -0.40348187 32
-1.6284524 -1.5196196 -0.42512199 9
-1.5266424 -1.4241154 -0.32424384 10
-1.5124761 -1.4104068 -0.24886853 7
-1.5108613 -1.408408 -0.17736192 7
-1.5439696 -1.4387677 -0.10823545 8
-1.7216402 -1.603771 -0.040402319 14
-1.7316846 -1.6125633 0.62334752 77
-1.7325867 -1.6128389 0.53722656 39
-1.7383687 -1.617655 0.45371762 51
-1.7311231 -1.6103488 0.3679972 49
-1.7325029 -1.6110682 0.28537738 54
-1.753633 -1.6301469 0.20571212 51
-1.7288634 -1.6065589 0.12127586 52
-1.7385341 -1.6149802 0.040343899 62
-1.1861229 -1.0999012 -0.42289349 55
-1.3071971 -1.2117498 -0.40235797 31
-1.6733491 -1.5506237 -0.43560702 25
-1.5316043 -1.4187778 -0.32424384 10
-1.5210316 -1.4084908 -0.24947701 7
-1.5157684 -1.4031255 -0.17736192 8
-1.5489825 -1.4333695 -0.10823545 8
-1.7345678 -1.6045411 -0.040576845 15
-1.7443951 -1.6130669 0.62593406 89
-1.7453612 -1.6133955 0.53947437 52
-1.7512147 -1.6182394 0.45562398 55
-1.7439891 -1.6109985 0.36955982 49
-1.7490542 -1.6151114 0.28720281 54
-1.7629727 -1.6273941 0.20614702 49
-1.7418 -1.6072867 0.12179748 55
-1.75151 -1.6156811 0.040516675 68
-1.1864023 -1.0924823 -0.42160022 58
-1.3114189 -1.2071794 -0.40235797 33
-1.6426332 -1.5115374 -0.42607516 17
-1.5401819 -1.4167662 -0.32502511 10
-1.5259389 -1.4031727 -0.24947701 7
-1.5243243 -1.4011971 -0.17779772 8
-1.557653 -1.4313321 -0.10849625 8
-1.7438397 -1.6018586 -0.040664103 16
-1.7429001 -1.6004347 0.62334752 38
-1.7581608 -1.6138824 0.54172218 68
-1.7640855 -1.6187537 0.45753035 59
-1.7568805 -1.6115775 0.37112245 49
-1.7619967 -1.6157044 0.28841975 60
-1.7759863 -1.627962 0.20701684 54
-1.758444 -1.611317 0.12257989 58
-1.7681984 -1.6196877 0.040775843 67
-1.1902086 -1.0883344 -0.42160022 61
-1.3120288 -1.1993072 -0.40123406 31
-1.6406528 -1.4991724 -0.4241688 12
-1.545118 -1.4113812 -0.32502511 10
-1.5344925 -1.4011843 -0.2500855 8
-1.529206 -1.3958676 -0.17779772 7
-1.5626397 -1.4258862 -0.10849625 8
-1.7605009 -1.6058687 -0.04092589 15
-1.7342005 -1.5813239 0.61817455 23
-1.7673843 -1.6110176 0.54284608 74
-1.7769814 -1.6191977 0.45943674 76
-1.7734481 -1.6154119 0.37346637 66
-1.7786345 -1.6195682 0.29024521 67
-1.7853416 -1.6251056 0.20745176 77
-1.7751372 -1.6152505 0.12336233 66
-1.7812376 -1.6202333 0.040948622 80
-1.1940002 -1.0841732 -0.42160022 63
-1.3125995 -1.1914456 -0.40011016 28
-1.6458758 -1.4934363 -0.4241688 13
-1.5536932 -1.4092971 -0.32580644 10
-1.5393742 -1.3958192 -0.2500855 7
-1.5377595 -1.3938663 -0.17823349 7
-1.5713078 -1.4237757 -0.10875706 8
-1.7735064 -1.6064261 -0.041100416 17
-1.7253888 -1.5622935 0.61300153 25
-1.7729971 -1.6048385 0.54284608 37
-1.7899016 -1.6195714 0.46134311 103
-1.7900641 -1.6191504 0.3758103 94
-1.7953204 -1.6233352 0.29207063 90
-1.798394 -1.6255438 0.20832157 103
-1.7918789 -1.6190869 0.12414475 79
-1.7943023 -1.6207076 0.041121401 81
-1.1977775 -1.0799987 -0.42160022 65
-1.3131316 -1.1835945 -0.39898625 22
-1.6401397 -1.4778253 -0.42130923 13
-1.558603 -1.4038652 -0.32580644 10
-1.5479254 -1.3937582 -0.25069398 7
-1.5426157 -1.3884898 -0.17823349 7
-1.5762682 -1.4182823 -0.10875706 8
-1.7530845 -1.5768231 -0.04048958 5
-1.7308317 -1.5562613 0.61300153 17
-1.7785882 -1.5986397 0.54284608 36
-1.7991951 -1.6165941 0.46229634 86
-1.8067273 -1.6227921 0.37815422 89
-1.8083614 -1.6236897 0.29328761 89
-1.8077641 -1.6225834 0.20875648 77
-1.8086693 -1.6228262 0.12492718 84
-1.7776192 -1.5944066 0.040603064 28
-1.20154 -1.0758111 -0.42160022 60
-1.3172551 -1.1790036 -0.39898625 19
-1.5172625 -1.3575425 -0.38794762 32
-1.567175 -1.4017084 -0.32658774 10
-1.5527811 -1.3883463 -0.25069398 7
-1.5511669 -1.3864162 -0.17866927 7
-1.5849326 -1.4160981 -0.10901786 8
-1.7399352 -1.5540429 -0.040053267 5
-1.747062 -1.5598602 0.61688131 16
-1.7841576 -1.5924217 0.54284608 21
-1.8011646 -1.6070364 0.46134311 39
-1.7976384 -1.6033266 0.37502897 28
-1.799201 -1.6041565 0.29085368 33
-1.8096983 -1.612949 0.20832157 36
-1.7956822 -1.5998945 0.12362313 27
-1.7719743 -1.5782169 0.040343899 31
-1.2052881 -1.0716106 -0.42160022 60
-1.3177209 -1.1711618 -0.39786234 15
-1.5036455 -1.3359379 -0.38318169 25
-1.5720584 -1.3962294 -0.32658774 9
-1.5576178 -1.3829176 -0.25069398 7
-1.555997 -1.3809931 -0.17866927 7
-1.5936013 -1.4138708 -0.10927868 7
-1.7378688 -1.5413257 -0.039878745 5
-1.763338 -1.5633649 0.62076104 12
-1.7824132 -1.5797212 0.54059827 14
-1.8030897 -1.5974845 0.46038994 30
-1.7958299 -1.5904931 0.37346637 30
-1.7936425 -1.5879973 0.28902826 42
-1.8115876 -1.6033212 0.20788665 30
-1.7862974 -1.5803825 0.12257989 27
-1.7812172 -1.5753337 0.040430285 24
-1.2090213 -1.0673966 -0.42160022 49
-1.3218009 -1.1665549 -0.39786234 16
-1.5009384 -1.3241866 -0.38127533 29
-1.5806265 -1.3939999 -0.32736906 9
-1.5624355 -1.3774722 -0.25069398 7
-1.564545 -1.3788466 -0.17910506 7
-1.6022733 -1.4116001 -0.10953948 8
-1.7732524 -1.5616828 -0.040576845 16
-1.8014109 -1.5859236 0.63240033 34
-1.7879167 -1.5734895 0.54059827 9
-1.8012846 -1.5846965 0.45848358 23
-1.793954 -1.5776922 0.37190375 19
-1.7991747 -1.5817267 0.28902826 34
-1.8059487 -1.5871232 0.20658194 20
-1.7843008 -1.5675465 0.12205828 19
nan nan nan 0
-1.2127397 -1.0631698 -0.42160022 36
-1.329529 -1.1651449 -0.39898625 16
-1.5018595 -1.3157049 -0.38032213 29
-1.589198 -1.3917277 -0.32815036 9
-1.5709684 -1.3752789 -0.25130248 7
-1.5693485 -1.3733771 -0.17910506 7
-1.607191 -1.4059986 -0.10953948 7
-1.767403 -1.5456104 -0.040315058 9
-1.8396623 -1.6082354 0.64403963 42
-1.8190783 -1.5896809 0.54846561 22
-1.8141981 -1.5848577 0.46038994 19
-1.8031701 -1.574669 0.37268507 13
-1.8084235 -1.5787004 0.28963673 15
-1.8152308 -1.5840846 0.20701684 15
-1.7859989 -1.5580261 0.12179748 12
nan nan nan 0
-1.2164435 -1.0589302 -0.42160022 25
-1.3372635 -1.1636952 -0.40011016 14
-1.4953334 -1.3007901 -0.37746257 28
-1.5940465 -1.3861719 -0.32815036 9
-1.5757595 -1.3697869 -0.25130248 7
-1.5741329 -1.3678906 -0.17910506 7
-1.6158586 -1.4036545 -0.10980029 7
-1.852056 -1.608266 -0.042147558 17
-1.8489124 -1.6049702 0.64533287 42
-1.8430152 -1.599287 0.55408514 30
-1.8123039 -1.5720826 0.45848358 16
-1.8198491 -1.5780712 0.37502897 11
-1.8326733 -1.5886316 0.29267913 16
-1.8433355 -1.5973103 0.20962629 18
-1.7914265 -1.5517824 0.12179748 10
nan nan nan 0
-1.2420563 -1.0736283 -0.42935973 18
-1.3450037 -1.1622056 -0.40123406 15
-1.4924359 -1.2891455 -0.37555617 28
-1.6026133 -1.3838269 -0.32893169 9
-1.5842882 -1.3675208 -0.25191092 6
-1.5826691 -1.3656415 -0.17954083 7
-1.6207483 -1.3980056 -0.10980029 7
-1.8652308 -1.6083205 -0.042322084 14
-1.8618201 -1.6048131 0.64791936 42
-1.8670409 -1.6087453 0.55970466 34
-1.8549696 -1.59778 0.46801546 30
-1.855286 -1.5974885 0.3812795 32
-1.8607757 -1.6016501 0.29633 36
-1.8866574 -1.6233544 0.2139754 25
-1.868757 -1.6073846 0.12675282 31
-1.0714386 -0.92125726 0.023757113 3
-1.2714512 -1.0913061 -0.43841249 14
-1.3527499 -1.1606762 -0.40235797 16
-1.4894756 -1.2775372 -0.37364981 27
-1.607434 -1.3782244 -0.32893169 8
-1.5928203 -1.3652121 -0.25251943 6
-1.5912092 -1.3633496 -0.17997661 7
-1.6256185 -1.3923395 -0.10980029 7
-1.882226 -1.611554 -0.042583872 14
-1.8747494 -1.6045855 0.65050584 43
-1.8874531 -1.614888 0.56420028 34
-1.886646 -1.6136272 0.47468778 35
-1.8833727 -1.6102586 0.38596734 37
-1.8852185 -1.6112673 0.29937243 39
-1.8998865 -1.6232299 0.21484523 23
-1.8819503 -1.6073375 0.12727445 35
-1.0746478 -0.91751152 0.023757113 4
-1.3009844 -1.1087916 -0.4474653 11
-1.3605016 -1.1591066 -0.40348187 15
-1.4864525 -1.2659652 -0.37174344 25
-1.6159953 -1.3758061 -0.32971299 9
-1.6013552 -1.3628602 -0.2531279 7
-1.5959585 -1.3577869 -0.17997661 6
-1.6304687 -1.3866565 -0.10980029 7
-1.8954575 -1.6114503 -0.042758394 13
-1.8913801 -1.607415 0.65438563 44
-1.9042176 -1.6177529 0.567572 35
-1.9109731 -1.6229179 0.47945368 41
-1.9078062 -1.6196554 0.38987389 38
-1.905967 -1.6175216 0.30180636 45
-1.9093393 -1.6198105 0.21528012 16
nan nan nan 0
-1.0473373 -0.88789237 0.023065995 7
-1.3048469 -1.1042436 -0.4474653 10
-1.3682591 -1.1574973 -0.40460578 17
-1.4833668 -1.2544299 -0.36983705 20
-1.620788 -1.3701569 -0.32971299 8
-1.6061028 -1.357262 -0.2531279 6
-1.6044933 -1.3554219 -0.18041238 6
-1.639114 -1.3841783 -0.11006109 7
-1.8934307 -1.5983745 -0.042583872 5
-1.9043617 -1.6070328 0.65697211 46
-1.9173007 -1.6173788 0.56981981 33
-1.9278834 -1.6257303 0.48231328 45
-1.9172243 -1.6161692 0.39065522 42
-1.9191916 -1.6172546 0.30302331 49
nan nan nan 0
-1.9007645 -1.6005921 0.12779607 4
-1.0313072 -0.86813372 0.022634048 16
-1.3086934 -1.099682 -0.4474653 11
-1.3722912 -1.152714 -0.40460578 17
-1.4839777 -1.246088 -0.36888388 19
-1.6293436 -1.3676662 -0.33049431 9
-1.6146325 -1.3548377 -0.25373638 6
-1.6130309 -1.353014 -0.18084818 6
-1.6401097 -1.3752401 -0.10980029 7
-0.99097562 -0.83064353 -0.02190277 5
-1.9210658 -1.6096815 0.66085184 40
-1.9341397 -1.6200618 0.57319152 33
-1.9410728 -1.6252927 0.48421967 45
-1.9304283 -1.6158067 0.39221784 40
-1.9324377 -1.6169151 0.30424026 49
nan nan nan 0
nan nan nan 0
-1.0074806 -0.84208584 0.022029322 18
-1.3088155 -1.0920129 -0.446172 11
-1.3800482 -1.1510375 -0.40572968 18
-1.4807786 -1.234614 -0.36697748 17
-1.6341077 -1.3619704 -0.33049431 8
-1.619352 -1.3491932 -0.25373638 6
-1.6177441 -1.3473753 -0.18084818 6
-1.6487374 -1.3727015 -0.11006109 6
nan nan nan 0
-1.9340988 -1.6091441 0.66343844 42
-1.9472747 -1.6195313 0.57543933 35
-1.954283 -1.624783 0.48612604 45
-1.9398545 -1.6122149 0.39299911 41
-1.9457045 -1.6165026 0.30545723 37
nan nan nan 0
nan nan nan 0
-0.99117905 -0.82260048 0.021597374 17
-1.3126193 -1.0874375 -0.446172 12
-1.3840576 -1.1462132 -0.40572968 19
-1.4812983 -1.2263077 -0.36602432 16
-1.6426563 -1.3594066 -0.33127561 8
-1.6278754 -1.3466958 -0.25434485 6
-1.6262757 -1.3448943 -0.18128394 6
-1.6496706 -1.3637564 -0.10980029 6
-1.0160186 -0.83962804 -0.02233908 17
-1.9471512 -1.6085352 0.66602492 42
-1.9604294 -1.6189287 0.57768714 34
-1.967513 -1.6242009 0.4880324 46
-1.9530888 -1.6117204 0.39456174 39
-1.9666487 -1.6223334 0.30789116 20
nan nan nan 0
-1.0428196 -0.85963416 0.068592578 8
-0.98247015 -0.80959791 0.021338208 18
-1.3126773 -1.0797808 -0.44487876 14
-1.3918133 -1.1444694 -0.40685359 20
-1.4779865 -1.2148961 -0.36411792 15
-1.6473917 -1.3536644 -0.33127561 8
-1.6325665 -1.3410051 -0.25434485 6
-1.6309603 -1.3392093 -0.18128394 6
nan nan nan 0
-0.9996196 -0.82022065 -0.02190277 19
-1.963957 -1.6109177 0.66990465 41
-1.9736035 -1.6182539 0.57993495 33
-1.9807628 -1.6235461 0.4899388 45
-1.970163 -1.614283 0.39690569 40
-1.9531029 -1.599735 0.30484873 7
-1.0701712 -0.87623703 0.11742552 7
-1.0380861 -0.84966362 0.068070963 10
-0.98142093 -0.80299777 0.021251818 21
-1.3164383 -1.0751921 -0.44487876 16
-1.3957998 -1.139604 -0.40685359 27
-1.4784157 -1.2066259 -0.36316475 13
-1.6521068 -1.3479056 -0.33127561 8
-1.6410834 -1.3384351 -0.25495335 6
-1.6394857 -1.3366555 -0.18171974 6
-1.6668923 -1.3585155 -0.11032191 4
-0.99472505 -0.8104111 -0.021728246 17
-1.9770582 -1.6101524 0.67249113 42
-1.9905752 -1.6205829 0.58330667 32
-1.9978386 -1.6259166 0.49279836 45
-1.9834478 -1.6136295 0.39846832 39
-1.9625255 -1.5960389 0.30545723 2
-1.0616285 -0.86306977 0.11612079 7
-1.0332958 -0.83973664 0.067549348 11
-0.9803378 -0.79641485 0.021165429 25
-1.316432 -1.0675482 -0.44358552 21
-1.3997693 -1.1347249 -0.40685359 35
-1.4788052 -1.1983677 -0.36221156 13
-1.6606393 -1.3452392 -0.33205694 8
-1.6457454 -1.3326983 -0.25495335 6
-1.6441416 -1.3309245 -0.18171974 6
-1.0738676 -0.86898035 -0.070157431 5
-0.99366105 -0.80378985 -0.021640982 21
-1.990178 -1.609315 0.67507768 44
-2.0037978 -1.6197503 0.58555448 32
-2.0111375 -1.6251029 0.49470475 43
-2.0005937 -1.6160059 0.40081227 39
nan nan nan 0
-1.0607587 -0.8562302 0.11568588 6
-1.0284487 -0.82985353 0.067027733 12
-0.97922069 -0.78984934 0.021079039 19
-1.3201505 -1.0629464 -0.44358552 24
-1.407517 -1.1328866 -0.40797749 44
-1.4791553 -1.1901217 -0.36125836 13
-1.6653249 -1.3394341 -0.33205694 7
-1.6503874 -1.3269455 -0.25495335 6
-1.6526598 -1.3282977 -0.1821555 6
nan nan nan 0
-0.99256301 -0.7971859 -0.021553721 22
-2.0033157 -1.6084059 0.67766416 42
-2.0170388 -1.6188446 0.58780229 34
-2.0244546 -1.6242156 0.49661112 44
-2.0139275 -1.6151921 0.40237486 37
nan nan nan 0
-1.0637411 -0.85252213 0.11568588 5
-1.0196488 -0.81689268 0.06624531 14
-0.97806954 -0.78330129 0.020992648 22
-1.3238528 -1.058332 -0.44358552 31
-1.4114629 -1.1279666 -0.40797749 54
-1.4794655 -1.1818876 -0.36030519 11
-1.6699903 -1.3336129 -0.33205694 8
-1.6588879 -1.3242729 -0.2555618 6
-1.6611797 -1.3256277 -0.18259129 6
-1.0681978 -0.8521207 -0.069375001 17
-0.99533963 -0.79371631 -0.021553721 25
-2.0202482 -1.6104351 0.68154395 43
-2.0341079 -1.6209029 0.59117401 34
-2.0377903 -1.6232555 0.49851748 42
-2.0311434 -1.6173816 0.40471879 40
nan nan nan 0
-1.0628128 -0.84570241 0.11525097 5
-1.0146786 -0.80711186 0.065723695 13
-0.97688484 -0.77677095 0.020906258 24
-1.323756 -1.0507016 -0.44229224 32
-1.4192083 -1.1260611 -0.4091014 53
-1.4835821 -1.1767161 -0.36030519 9
-1.6785049 -1.3308438 -0.33283821 8
-1.6635003 -1.3184741 -0.2555618 5
-1.6657969 -1.319821 -0.18259129 6
-1.0515947 -0.83288616 -0.068070963 15
-0.99418473 -0.78713393 -0.02146646 24
-2.0334318 -1.6093681 0.68413043 43
-2.0473955 -1.6198386 0.59342182 33
-2.0549932 -1.6252666 0.50137705 43
-2.0445247 -1.6164073 0.40628141 38
-1.0423566 -0.82379466 0.15820493 5
-1.06185 -0.83889949 0.11481606 6
-1.0057342 -0.79428101 0.064941265 14
-0.9756664 -0.77025849 0.020819869 29
-1.3274156 -1.0460744 -0.44229224 34
-1.4269575 -1.1241151 -0.4102253 56
-1.476112 -1.1624202 -0.35744563 8
-1.6831404 -1.3249766 -0.33283821 8
-1.6719927 -1.3157284 -0.2561703 6
-1.6743084 -1.3170778 -0.18302706 6
-1.0505706 -0.82612383 -0.067810155 14
-0.99692625 -0.78365874 -0.02146646 26
-2.0504301 -1.6112127 0.68801016 43
-2.0645313 -1.6217107 0.59679353 33
-2.0683749 -1.624146 0.50328338 47
-2.0579243 -1.6153594 0.40784404 38
-1.0452259 -0.82015109 0.15820493 4
-1.0608526 -0.83211368 0.11438116 9
-1.0006419 -0.78460348 0.06441965 13
-0.97834921 -0.76684809 0.020819869 30
-1.331059 -1.0414345 -0.44229224 32
-1.4347104 -1.1221287 -0.41134921 51
-1.5072279 -1.178423 -0.36411792 11
-1.6916463 -1.3221345 -0.33361953 7
-1.6804858 -1.3129395 -0.25677878 6
-1.6828214 -1.3142912 -0.18346284 6
-1.049512 -0.81937891 -0.067549348 15
-0.9957146 -0.7770983 -0.021379197 26
-2.0636578 -1.6099873 0.69059664 41
-2.0817049 -1.6234826 0.60016519 33
-2.0856445 -1.6259695 0.50614297 43
-2.0752363 -1.6172733 0.41018796 38
-1.0402523 -0.81039768 0.15698798 4
-1.0598207 -0.8253451 0.11394624 11
-0.99549448 -0.77497125 0.063898034 15
-0.9770748 -0.7603581 0.020733479 31
-1.334686 -1.0367819 -0.44229224 31
-1.4424666 -1.1201022 -0.41247311 58
