# .PCD v0.7 - Point Cloud Data file format
VERSION 0.7
FIELDS x y z intensity
SIZE 4 4 4 4
TYPE F F F F
COUNT 1 1 1 1
WIDTH 1343
HEIGHT 1
VIEWPOINT 0 0 0 1 0 0 0
POINTS 1343
DATA ascii
-0.81311381 3.2563784 0.88846427 36
-0.81130618 3.2515535 0.76425534 16
-0.8155157 3.2708547 0.64721489 22
-0.80319965 3.2238548 0.51957142 15
-0.44445506 1.7852664 0.22087842 4
-0.42409453 1.7047524 0.15004371 3
nan nan nan 0
-0.4226031 1.701292 0.029631598 4
-0.76800305 3.1033564 -0.84578699 14
-0.7623896 3.0829809 -0.72379482 12
-0.7580331 3.0676613 -0.60622776 18
-0.74909097 3.033747 -0.48831901 9
-0.42525995 1.723555 -0.21296819 10
-0.43244043 1.753973 -0.15470144 4
-0.43317202 1.7582606 -0.092586942 4
-0.42620796 1.7312943 -0.030454447 5
-0.80058819 3.2545068 0.88717103 37
-0.7999512 3.2543657 0.76425534 16
-0.80292243 3.2689147 0.64626163 23
-0.79194146 3.226639 0.51957142 15
nan nan nan 0
-0.41458443 1.6917088 0.148739 3
-0.7953276 3.2477803 0.17265509 23
nan nan nan 0
-0.74801457 3.0684791 -0.83544099 7
-0.74701107 3.0666888 -0.71929914 5
-0.74151629 3.0464432 -0.60146183 9
-0.74783361 3.0747328 -0.49456948 16
-0.41924104 1.7250288 -0.21296819 9
-0.43219259 1.7796733 -0.15688033 6
-0.4246769 1.7500572 -0.092065327 4
-0.42016202 1.7327714 -0.030454447 4
-0.78922302 3.2572818 0.88717103 37
-0.78858644 3.2571383 0.76425534 17
-0.79150689 3.2716975 0.64626163 21
-0.78067356 3.2293835 0.51957142 16
nan nan nan 0
nan nan nan 0
-0.78164446 3.2408288 0.17213348 17
-0.78318727 3.2497137 0.057103459 14
-0.76097661 3.1696956 -0.86259925 11
-0.7681247 3.2019315 -0.75076848 29
-0.77435565 3.2303903 -0.63768297 25
nan nan nan 0
-0.40859631 1.7071756 -0.21053427 13
-0.41207504 1.7230388 -0.151651 15
-0.41972601 1.7563854 -0.092326134 4
nan nan nan 0
-0.7767272 3.2553189 0.88587779 39
-0.77608222 3.2551322 0.76313144 17
-0.77894431 3.2696657 0.64530849 22
-0.76825243 3.2272847 0.51879013 16
-0.76567447 3.2189486 0.40098864 11
-0.78286153 3.2937579 0.29225907 4
-0.7680195 3.2338212 0.17161186 15
-0.76837581 3.2378354 0.05684429 32
-0.76212984 3.224036 -0.87682498 32
-0.76366305 3.2330427 -0.75751191 39
-0.7653296 3.2426276 -0.63958937 13
-0.40667421 1.7243854 -0.27423996 29
-0.40035802 1.6989305 -0.2093173 9
-0.39235833 1.6662862 -0.14642164 47
-0.41473615 1.7627002 -0.092586942 4
nan nan nan 0
-0.76535928 3.2580104 0.88587779 41
-0.76471496 3.2578216 0.76313144 16
-0.76640534 3.2675862 0.6443553 22
-0.7558555 3.2251384 0.51800877 16
-0.75103891 3.2071059 0.39916322 24
-0.77703393 3.3207207 0.29443362 10
-0.7590003 3.2462065 0.17213348 19
-0.760481 3.2551022 0.057103459 31
-0.75634474 3.2501976 -0.8832913 40
-0.7545799 3.2451794 -0.75975972 38
-0.74734122 3.2165937 -0.63387018 3
-0.39953569 1.7209836 -0.27345866 15
-0.38993934 1.6809798 -0.20688337 8
-0.39216307 1.6919072 -0.14860053 18
nan nan nan 0
-0.66799748 2.8865187 -0.051048286 16
-0.75398213 3.2606621 0.88587779 40
-0.75224161 3.255724 0.76200753 17
-0.75389063 3.2654591 0.6434021 21
-0.74348301 3.2229452 0.51722747 16
-0.73983943 3.209708 0.39916322 16
-0.75425816 3.2748733 0.29008454 2
-0.74542469 3.239104 0.17161186 17
-0.74687332 3.2479925 0.05693068 28
-0.74499482 3.2528179 -0.8832913 49
-0.74433434 3.252543 -0.76088363 36
nan nan nan 0
-0.38582572 1.6886661 -0.26798946 16
-0.38075551 1.6678156 -0.20505793 42
-0.38847032 1.7029781 -0.14947209 16
nan nan nan 0
-0.65569735 2.8790841 -0.050873764 12
-0.74152386 3.2585642 0.88458449 42
-0.73979217 3.2535789 0.76088363 17
-0.74140006 3.2632844 0.6424489 21
-0.73113507 3.2207046 0.51644617 15
-0.72863102 3.212271 0.39916322 18
nan nan nan 0
-0.73301071 3.2368164 0.17135105 18
-0.73442781 3.2457039 0.05684429 28
-0.73151213 3.2459753 -0.88070476 45
nan nan nan 0
nan nan nan 0
-0.37342963 1.6610928 -0.26330161 72
-0.37928218 1.6885031 -0.20749186 16
-0.38143265 1.6994638 -0.14903632 8
-0.65630144 2.9265251 -0.15465932 13
-0.64892274 2.8959899 -0.051135547 12
-0.73014486 3.261133 0.88458449 39
-0.72843063 3.2561414 0.76088363 18
-0.73000455 3.2658525 0.6424489 21
-0.71881169 3.2184172 0.51566488 15
-0.71633267 3.2099512 0.39855474 18
-0.4039979 1.8118383 0.15874191 2
-0.72062176 3.2344818 0.17109025 19
-0.72144139 3.243494 0.056757901 28
-0.7196101 3.2486346 -0.88070476 43
nan nan nan 0
nan nan nan 0
-0.37160105 1.6817393 -0.26642683 18
-0.37416086 1.6947281 -0.20810033 16
nan nan nan 0
-0.64557076 2.9289112 -0.15465932 14
-0.63830405 2.8983488 -0.051135547 12
-0.71714938 3.2590704 0.8832913 39
-0.71544516 3.2540312 0.75975972 17
-0.71697652 3.2637122 0.64149576 23
-0.70595199 3.2162066 0.51488352 16
-0.70456278 3.2125549 0.39855474 21
-0.40588412 1.8522317 0.16222119 2
-0.70769405 3.2322237 0.17082943 18
-0.70904666 3.2411089 0.056671511 29
-0.70826584 3.2511265 -0.88070476 32
-0.36563548 1.6797725 -0.3877472 25
-0.35965574 1.6536896 -0.32122445 6
-0.36887452 1.6975042 -0.26877078 19
nan nan nan 0
nan nan nan 0
-0.63534307 2.9311466 -0.15465932 11
-0.63029939 2.9103312 -0.05131007 11
-0.70576876 3.2615538 0.8832913 40
-0.70305252 3.2517469 0.75863582 17
-0.70454329 3.2613974 0.64054251 20
-0.69367909 3.2138238 0.51410228 15
-0.69229841 3.2101436 0.39794627 19
-0.40361306 1.8731143 0.16396083 2
-0.69535625 3.2297928 0.17056863 19
-0.69772875 3.2435641 0.056671511 29
nan nan nan 0
-0.35671091 1.666746 -0.38437548 28
-0.35182834 1.6453353 -0.31931809 6
-0.35881948 1.6794631 -0.26564553 6
nan nan nan 0
-0.61475688 2.8823078 -0.25449476 9
-0.62822962 2.9479973 -0.15544175 11
-0.62117767 2.9174035 -0.051397335 11
-0.69337445 3.2592733 0.881998 39
-0.6906845 3.2494152 0.75751191 16
-0.69213486 3.2590356 0.63958937 19
-0.68143141 3.2113945 0.51332092 14
-0.68108863 3.2125404 0.39794627 19
-0.68815732 3.2486763 0.28660524 24
-0.68304402 3.2273154 0.17030782 18
-0.68536806 3.2410886 0.056585122 29
-0.35218933 1.6727049 -0.4474653 24
-0.35389963 1.6822842 -0.3877472 34
-0.34608293 1.6465534 -0.31931809 11
nan nan nan 0
-0.68455005 3.2625306 -0.40403107 61
-0.606736 2.8941863 -0.25536633 9
-0.61793536 2.9501722 -0.15544175 11
-0.61201429 2.9244473 -0.051484596 12
-0.68199331 3.2616739 0.881998 43
-0.67834151 3.2470376 0.75638807 16
-0.67975163 3.2566271 0.63863617 19
-0.67021745 3.2137535 0.51332092 15
-0.66987062 3.2148983 0.39794627 20
nan nan nan 0
-0.67177445 3.2296801 0.17030782 18
-0.67405039 3.2434614 0.056585122 31
-0.34634835 1.6739242 -0.4474653 21
-0.35098419 1.6978228 -0.39111891 25
nan nan nan 0
nan nan nan 0
-0.67215532 3.2600396 -0.40342256 60
-0.59662968 2.8962865 -0.25536633 9
-0.60864019 2.9572017 -0.15570255 11
-0.60280925 2.9314623 -0.051571857 12
-0.66963172 3.2593036 0.88070476 43
-0.66602337 3.2446129 0.7552641 16
-0.66739368 3.2541718 0.63768297 17
-0.65800393 3.2112358 0.51253963 15
-0.6576491 3.2123549 0.39733776 19
-0.66546071 3.2534013 0.28660524 18
-0.6594969 3.2271132 0.17004701 19
-0.66172439 3.2408965 0.056498732 30
-0.34435156 1.6940552 -0.4526383 20
-0.65728712 3.2364516 -0.75301629 32
nan nan nan 0
-0.57474208 2.8350773 -0.45159739 9
-0.66077161 3.2623658 -0.40342256 63
-0.58947992 2.9129975 -0.25667366 9
-0.59930342 2.9642026 -0.15596336 10
-0.59356278 2.9384491 -0.051659122 12
-0.65729511 3.2568865 0.87941152 42
-0.65469354 3.246918 0.7552641 16
-0.65506113 3.2516699 0.63672978 17
-0.64581615 3.2086713 0.51175833 14
-0.64643186 3.2146308 0.39733776 18
-0.65311903 3.2508209 0.28617036 18
-0.64822811 3.2293959 0.17004701 19
-0.65040755 3.2431865 0.056498732 29
-0.3403272 1.7047195 -0.45522478 17
nan nan nan 0
-0.64920866 3.2578487 -0.63768297 51
-0.56291366 2.827379 -0.4500348 9
-0.64841157 3.2597849 -0.40281412 63
-0.58027905 2.9199233 -0.25710946 9
-0.58992517 2.971174 -0.15622416 10
-0.58524752 2.9503107 -0.051833645 11
-0.64592248 3.2591612 0.87941152 41
-0.64240938 3.2444046 0.75414026 16
-0.6427542 3.2491219 0.63577664 17
-0.63365436 3.2060614 0.51097703 14
-0.6342454 3.2119992 0.39672932 19
-0.63983941 3.2433074 0.28530052 19
-0.63695151 3.2316389 0.17004701 20
-0.63811678 3.2405319 0.056412343 29
-0.63630801 3.2462878 -0.87553179 34
-0.63467658 3.2409613 -0.75301629 52
-0.6378327 3.2600949 -0.63768297 62
-0.5530408 2.8293266 -0.4500348 9
-0.63798004 3.2668993 -0.40342256 65
-0.57103688 2.9268196 -0.25754523 8
-0.58050555 2.978116 -0.15648498 10
-0.57590103 2.9572425 -0.051920906 11
-0.63361949 3.256655 0.87811828 38
-0.63015074 3.2418444 0.75301629 16
-0.63047296 3.2465272 0.63482338 16
-0.62151861 3.2034054 0.51019567 15
-0.62208515 3.2093213 0.39612082 20
-0.63040835 3.2553012 0.28617036 15
-0.62471861 3.2289402 0.1697862 20
-0.62528753 3.2379405 0.056325953 30
-0.6253171 3.2533412 -0.87682498 40
-0.62279356 3.2432659 -0.75301629 60
-0.62587959 3.2624106 -0.63768297 62
-0.54173756 2.8264847 -0.4492535 9
-0.6250686 3.2643414 -0.40281412 63
-0.56124163 2.9337852 -0.257981 9
-0.57146102 2.9900327 -0.15700659 10
-0.56599599 2.9642439 -0.052008171 11
-0.62167901 3.2589552 0.87811828 38
-0.61826456 3.2441323 0.75301629 16
-0.61673355 3.2391729 0.63291705 17
-0.60977334 3.2056618 0.51019567 15
-0.61031818 3.2115796 0.39612082 21
-0.6175437 3.2526963 0.28573543 14
-0.61287981 3.2312081 0.1697862 20
-0.61398119 3.2401035 0.056325953 29
-0.61306196 3.2507579 -0.87553179 51
-0.61056662 3.2406323 -0.75189245 54
-0.61448777 3.2645755 -0.63768297 66
-0.53186798 2.8283584 -0.4492535 9
-0.61275375 3.261626 -0.40220562 68
-0.55191618 2.9406216 -0.25841677 9
-0.56194055 2.9969165 -0.15726739 10
-0.55656582 2.9711151 -0.052095428 12
-0.60941088 3.2563581 0.87682498 40
-0.60604131 3.2414818 0.75189245 15
-0.60452175 3.236481 0.63196379 16
-0.59767389 3.2029161 0.50941437 15
-0.59819448 3.208812 0.39551234 19
-0.60618585 3.254832 0.28573543 14
-0.60068363 3.2284188 0.1695254 19
-0.60175371 3.2373116 0.056239564 29
-0.59819686 3.233881 -0.87035877 51
-0.57888788 3.1325526 -0.72604263 35
-0.59595972 3.2280862 -0.63005745 75
-0.52020043 2.8204844 -0.44769087 9
-0.6004656 3.2588644 -0.40159714 57
-0.54345167 2.9523277 -0.25928834 9
-0.55237907 3.0037711 -0.15752821 10
-0.54799795 2.9828737 -0.052269954 11
-0.59804034 3.2584655 0.87682498 43
-0.593844 3.238785 0.75076848 14
-0.59145182 3.2289155 0.63005745 16
-0.58648992 3.204983 0.50941437 15
-0.58699006 3.2108805 0.39551234 22
-0.59482068 3.2569282 0.28573543 14
-0.58941066 3.2304962 0.1695254 19
-0.59044975 3.2393925 0.056239564 29
-0.55846119 3.0791225 -0.82768142 42
-0.55578899 3.0674381 -0.7103079 37
-0.55234098 3.0514441 -0.59478951 47
-0.50947309 2.8174231 -0.44690955 8
nan nan nan 0
-0.5340274 2.9591088 -0.25972411 9
-0.54366243 3.0155089 -0.15804982 10
-0.53846866 2.9896889 -0.052357219 11
-0.58666253 3.2605333 0.87682498 50
-0.58167303 3.2360435 0.74964464 14
-0.57844228 3.2212982 0.62815106 16
-0.57442689 3.2021496 0.50863308 15
-0.57490289 3.2080245 0.39490387 24
-0.58257049 3.2540817 0.28530052 15
-0.57725155 3.2276185 0.16926458 21
-0.57913858 3.2414339 0.056239564 29
-0.54179233 3.0477664 -0.81862867 11
-0.53400379 3.0069988 -0.69569719 16
-0.53482705 3.0146909 -0.58716398 19
-0.49704993 2.8045962 -0.44456562 4
-0.57423919 3.2434297 -0.39916322 9
-0.52542996 2.9707644 -0.26059568 9
-0.53400183 3.022305 -0.15831064 10
-0.52976727 3.0013964 -0.052531742 11
-0.57527757 3.2625613 0.87682498 52
-0.57037359 3.238054 0.74964464 14
-0.56634367 3.2184639 0.62719792 16
-0.56324577 3.2041352 0.50863308 16
-0.56370133 3.210012 0.39490387 22
-0.57120812 3.2560954 0.28530052 15
-0.56511962 3.2246959 0.16900378 19
-0.56695825 3.2385116 0.056153174 29
-0.52037674 2.987782 -0.8018164 4
-0.52016366 2.9896448 -0.69120157 16
-0.51589555 2.9681814 -0.57763213 17
-0.49063638 2.8257771 -0.44769087 5
nan nan nan 0
-0.51590717 2.9774883 -0.26103145 9
-0.52515191 3.0339909 -0.15883225 11
-0.52013904 3.0081532 -0.052619003 12
-0.56388557 3.2645495 0.87682498 50
-0.55823874 3.235224 0.74852067 14
-0.55510575 3.2204213 0.62719792 18
-0.5528959 3.2109487 0.50941437 16
-0.55249286 3.2119601 0.39490387 20
-0.55899513 3.2531602 0.28486562 15
-0.55385989 3.226649 0.16900378 18
-0.55565029 3.2404709 0.056153174 30
-0.48233232 2.8277032 -0.75784576 7
-0.50645113 2.9722309 -0.68670589 11
-0.50635505 2.9748023 -0.57858527 14
-0.48242527 2.8372099 -0.4492535 5
nan nan nan 0
-0.5063439 2.9841814 -0.26146722 9
-0.5153926 3.0407286 -0.15909307 10
-0.51130462 3.019809 -0.052793525 11
-0.55168128 3.2617357 0.87553179 53
-0.54775399 3.2419569 0.74964464 16
-0.5463115 3.2368586 0.63005745 19
-0.54250532 3.2177289 0.51019567 17
-0.54127765 3.2138691 0.39490387 23
-0.54763609 3.2550917 0.28486562 16
-0.54176587 3.2236381 0.16874297 20
-0.54350781 3.2374604 0.056066785 29
-0.45257154 2.7102721 -0.72551447 4
-0.50408912 3.0220373 -0.697945 69
-0.49354786 2.9620273 -0.57572573 15
-0.47495118 2.8534913 -0.45159739 6
nan nan nan 0
-0.49755633 2.9957583 -0.26233879 8
-0.50640976 3.0523608 -0.15961468 10
-0.50157773 3.0265074 -0.05288079 12
-0.54029238 3.2636418 0.87553179 49
-0.53802389 3.2534628 0.75189245 28
-0.53660935 3.2484312 0.63196379 39
-0.53368211 3.2342215 0.51253963 33
-0.53247726 3.2304292 0.39672932 23
-0.53707963 3.2618985 0.28530052 18
-0.53132033 3.2304368 0.16900378 21
-0.53301418 3.2442713 0.056153174 29
-0.43531954 2.6641688 -0.71258199 3
-0.4935371 3.0237784 -0.697945 50
-0.4792563 2.9395103 -0.57095981 12
-0.4657816 2.8600063 -0.45237872 7
nan nan nan 0
-0.48789504 3.0023932 -0.26277456 8
-0.49655199 3.0590384 -0.15987548 10
-0.49261051 3.0381093 -0.053055312 12
-0.52889687 3.2655077 0.87553179 51
-0.52744204 3.2601304 0.75301629 36
-0.52683306 3.2599754 0.63387018 45
-0.52475047 3.2506907 0.51488352 39
-0.5227778 3.2420673 0.39794627 39
-0.52648228 3.268671 0.28573543 38
-0.52162707 3.2421312 0.1695254 22
-0.52247947 3.2510476 0.056239564 34
-0.42601722 2.6656723 -0.71258199 2
-0.48605126 3.0447271 -0.70244062 44
-0.47749451 2.9944832 -0.58144486 35
-0.45734909 2.8713689 -0.45394135 10
-0.50974828 3.2039454 -0.39307842 39
-0.47897527 3.0139165 -0.26364613 9
-0.48743662 3.070616 -0.16039711 10
-0.48278543 3.0447478 -0.053142574 12
-0.51673925 3.2625635 0.87423849 41
-0.51682013 3.2667637 0.75414026 39
-0.51698273 3.2714913 0.63577664 56
-0.51494026 3.262259 0.51644617 47
-0.51377654 3.2585793 0.39977169 48
-0.51584423 3.2754095 0.28617036 57
-0.51185858 3.2537973 0.17004701 44
-0.51133549 3.2578795 0.056325953 53
-0.41252059 2.6433556 -0.70611572 2
-0.47488853 3.046488 -0.70244062 46
-0.47104684 3.0253124 -0.58716398 37
-0.44833979 2.8827856 -0.45550397 11
-0.50561994 3.2548327 -0.39916322 64
-0.46868929 3.0205741 -0.2640819 9
-0.47694367 3.077316 -0.16065791 9
-0.47315228 3.0563776 -0.053317096 12
-0.50477797 3.2644355 0.87423849 49
-0.50484335 3.2686362 0.75414026 39
-0.50498867 3.2733641 0.63577664 59
-0.50373214 3.2690055 0.51722747 47
-0.50258476 3.2653458 0.40038019 49
-0.50459266 3.2822011 0.28660524 56
-0.50144511 3.265522 0.17056863 54
-0.50071818 3.2645862 0.056412343 61
-0.40474713 2.6543288 -0.70870227 2
-0.46351784 3.0433106 -0.70131665 49
-0.46196005 3.0366433 -0.58907038 37
-0.43827429 2.8843331 -0.45550397 11
-0.49648944 3.2712977 -0.40098864 68
-0.45888916 3.0271163 -0.26451766 8
-0.46694651 3.0838993 -0.16091873 10
-0.46322817 3.0629535 -0.053404361 12
-0.4926585 3.2614021 0.87294525 47
-0.49343058 3.2703786 0.75414026 38
-0.49355945 3.2751069 0.63577664 56
-0.49158305 3.2658603 0.51644617 46
-0.49118352 3.2670798 0.40038019 49
-0.4931325 3.2839422 0.28660524 46
-0.49078387 3.2721906 0.17082943 51
-0.48931956 3.266314 0.056412343 51
-0.39547932 2.6557252 -0.70870227 2
-0.45289186 3.04491 -0.70131665 47
-0.45207864 3.0430925 -0.59002358 36
-0.41950521 2.8272245 -0.44612825 28
-0.48288479 3.2582834 -0.39916322 70
-0.44977847 3.0385542 -0.26538923 8
-0.45763943 3.0953896 -0.16144034 10
-0.45399424 3.0744431 -0.053578883 12
-0.48127106 3.2631018 0.87294525 43
-0.48201182 3.2720809 0.75414026 37
-0.48212415 3.2768097 0.63577664 52
-0.48018003 3.2675562 0.51644617 40
-0.47905555 3.2638643 0.39977169 45
-0.48166645 3.2856438 0.28660524 55
-0.47935882 3.2738841 0.17082943 50
-0.47791502 3.268002 0.056412343 55
-0.38551199 2.6523101 -0.70740896 2
-0.44226035 3.0464725 -0.70131665 47
-0.44074923 3.0397944 -0.58907038 34
-0.39972457 2.7602448 -0.43518987 39
-0.47150829 3.259949 -0.39916322 72
-0.43988138 3.0450354 -0.265825 8
-0.44754472 3.1019101 -0.16170114 9
-0.44397277 3.0809574 -0.053666148 12
-0.46987778 3.2647622 0.87294525 47
-0.46989402 3.2689211 0.75301629 37
-0.46998549 3.2736139 0.63482338 52
-0.46877125 3.2692125 0.51644617 40
-0.46765962 3.2655168 0.39977169 46
-0.46948925 3.2823744 0.28617036 51
-0.4672218 3.2705944 0.17056863 52
-0.46650466 3.2696505 0.056412343 55
-0.37692937 2.6584215 -0.70870227 2
-0.43094045 3.0431738 -0.70019281 45
-0.43013567 3.0413141 -0.58907038 35
-0.39285004 2.7811835 -0.43831512 38
-0.4601261 3.261575 -0.39916322 71
-0.43063942 3.056417 -0.26669657 8
-0.43810585 3.1133425 -0.16222276 10
-0.43460703 3.0923893 -0.053840671 12
-0.45847878 3.2663825 0.87294525 52
-0.45848051 3.2705414 0.75301629 37
-0.45855552 3.2752345 0.63482338 54
-0.45735669 3.2708287 0.51644617 44
-0.456258 3.2671292 0.39977169 46
-0.45802873 3.283993 0.28617036 58
-0.45580244 3.2722054 0.17056863 49
-0.45508862 3.2712588 0.056412343 57
-0.36500216 2.6405838 -0.70352924 2
-0.42031518 3.0446596 -0.70019281 45
-0.41884649 3.037935 -0.58811718 34
-0.38381317 2.7874305 -0.43909645 39
-0.44873828 3.2631612 -0.39916322 72
-0.42064559 3.0628362 -0.26713234 8
-0.42791411 3.1197996 -0.16248357 10
-0.42448837 3.0988407 -0.053927932 11
-0.44707415 3.2679629 0.87294525 49
-0.44640189 3.2672946 0.75189245 38
-0.44645646 3.2719519 0.63387018 48
-0.44526973 3.2675121 0.51566488 49
-0.44485083 3.268702 0.39977169 56
-0.4458918 3.2806363 0.28573543 55
-0.44370592 3.2688284 0.17030782 46
-0.44242513 3.267951 0.056325953 55
-0.35854045 2.6658373 -0.70999545 2
-0.4091531 3.0461798 -0.70019281 47
-0.40770906 3.0394497 -0.58811718 32
-0.37359411 2.7888184 -0.43909645 40
-0.43677515 3.2647841 -0.39916322 77
-0.4107362 3.0742316 -0.26800391 8
-0.41779736 3.1312456 -0.16300519 9
-0.41444832 3.1102867 -0.054102458 11
-0.43509349 3.2695794 0.87294525 49
-0.4344236 3.268909 0.75189245 38
-0.43446118 3.2735665 0.63387018 58
-0.43329075 3.2691221 0.51566488 50
-0.43286741 3.2703106 0.39977169 60
-0.43386468 3.2822485 0.28573543 50
-0.43172207 3.2704327 0.17030782 47
-0.43101513 3.2694755 0.056325953 61
-0.34547022 2.6383388 -0.70223594 2
-0.39851746 3.0475893 -0.70019281 45
-0.39709696 3.0408542 -0.58811718 32
-0.36385706 2.7901056 -0.43909645 44
-0.42473537 3.2613676 -0.39855474 72
-0.40064502 3.080586 -0.26843968 8
-0.40750784 3.1376364 -0.16326599 9
-0.40423191 3.1166723 -0.054189719 12
-0.42367783 3.2710783 0.87294525 52
-0.42301038 3.2704055 0.75189245 37
-0.42240286 3.2701952 0.63291705 52
-0.42124492 3.2657168 0.51488352 46
-0.42144933 3.2718015 0.39977169 56
-0.42176941 3.2788026 0.28530052 53
-0.41966733 3.2669675 0.17004701 49
-0.41896379 3.2660012 0.056239564 53
-0.3435829 2.6970224 -0.71775496 2
-0.38726205 3.0441284 -0.69906884 46
-0.38647994 3.042222 -0.58811718 30
-0.35411561 2.7913587 -0.43909645 39
-0.41334847 3.2628303 -0.39855474 75
-0.3911396 3.0918489 -0.26931125 9
-0.39780459 3.1489475 -0.1637876 9
-0.39460161 3.1279838 -0.054364245 11
-0.41225708 3.2725375 0.87294525 53
-0.41159195 3.2718623 0.75189245 39
-0.4109852 3.2716498 0.63291705 51
-0.40984288 3.2671673 0.51488352 46
-0.41002598 3.273253 0.39977169 54
-0.41032165 3.2802551 0.28530052 53
-0.40764204 3.2634575 0.1697862 46
-0.40756077 3.2674437 0.056239564 63
-0.33950916 2.7413445 -0.72939426 2
-0.37663373 3.0454619 -0.69906884 45
-0.37525669 3.0386813 -0.58716398 29
-0.34436977 2.7925777 -0.43909645 39
-0.40195656 3.2642529 -0.39855474 74
-0.38095254 3.0981393 -0.26974702 8
-0.38741878 3.1552727 -0.16404842 9
-0.38489729 3.1392667 -0.054538768 11
-0.40083128 3.2739565 0.87294525 55
-0.40016851 3.2732787 0.75189245 39
-0.39896771 3.2681923 0.63196379 55
-0.39783823 3.2636755 0.51410228 49
-0.39799809 3.2697377 0.39916322 53
-0.39886895 3.2816672 0.28530052 54
-0.39624795 3.2648606 0.1697862 50
-0.39615279 3.2688465 0.056239564 63
-0.32589975 2.708946 -0.72034144 2
-0.36600077 3.0467579 -0.69906884 47
-0.36464742 3.0399725 -0.58716398 27
-0.33461976 2.7937627 -0.43909645 40
-0.39055973 3.2656362 -0.39855474 74
-0.371317 3.1093419 -0.27061859 8
-0.3775849 3.1665223 -0.16457003 9
-0.37452793 3.145555 -0.054626029 11
-0.38940063 3.2753356 0.87294525 62
-0.38874021 3.2746558 0.75189245 37
-0.38755715 3.2695651 0.63196379 53
-0.38644347 3.2650445 0.51410228 50
-0.38658214 3.271107 0.39916322 54
-0.38682756 3.2780926 0.28486562 53
-0.38426477 3.261265 0.1695254 56
-0.38415584 3.2652447 0.056153174 59
nan nan nan 0
-0.35536337 3.048017 -0.69906884 50
-0.35403371 3.0412269 -0.58716398 25
-0.32486564 2.7949138 -0.43909645 39
-0.37915817 3.2669797 -0.39855474 75
-0.36160779 3.1205149 -0.27149016 9
-0.36767718 3.1777411 -0.16509165 9
-0.36469305 3.1567755 -0.054800551 11
-0.37741172 3.2718768 0.87165201 60
-0.37730715 3.2759931 0.75189245 37
-0.37614191 3.2708979 0.63196379 55
-0.37504399 3.2663736 0.51410228 56
-0.37459624 3.2675061 0.39855474 54
-0.37538254 3.279423 0.28486562 60
-0.37287849 3.2625866 0.1695254 51
-0.37275571 3.2665658 0.056153174 53
nan nan nan 0
-0.34472165 3.0492389 -0.69906884 46
-0.34341571 3.042444 -0.58716398 23
-0.31510758 2.7960308 -0.43909645 49
-0.36775199 3.2682834 -0.39855474 74
-0.35126904 3.1267076 -0.27192593 8
-0.35713914 3.1839669 -0.16535245 9
-0.35422805 3.1629975 -0.054887816 11
-0.36598843 3.2731745 0.87165201 59
-0.36586952 3.2772901 0.75189245 37
-0.36472201 3.272191 0.63196379 55
-0.36363992 3.2676628 0.51410228 39
-0.36318824 3.2687936 0.39855474 51
-0.36393294 3.2807133 0.28486562 59
-0.36148766 3.2638683 0.1695254 54
-0.36135098 3.2678471 0.056153174 57
nan nan nan 0
-0.33407572 3.0504236 -0.69906884 51
-0.33279347 3.0436244 -0.58716398 24
-0.30534571 2.7971137 -0.43909645 54
-0.35580358 3.2646136 -0.39794627 75
-0.34143028 3.1378183 -0.27279747 9
-0.34710136 3.1951222 -0.16587406 9
-0.34426308 3.174155 -0.055062339 11
-0.3545607 3.2744319 0.87165201 55
-0.35390371 3.2737031 0.75076848 38
-0.35329774 3.2734439 0.63196379 52
-0.35223144 3.2689121 0.51410228 50
-0.3517758 3.2700417 0.39855474 55
-0.35247892 3.2819638 0.28486562 60
-0.35062477 3.2700751 0.1697862 53
-0.34994188 3.2690885 0.056153174 63
-0.28957486 2.7276409 -0.72422123 2
-0.32291225 3.0467265 -0.697945 51
-0.32216725 3.0447674 -0.58716398 20
-0.29558009 2.7981622 -0.43909645 56
-0.34440577 3.2658353 -0.39794627 75
-0.33099672 3.1439445 -0.27323326 8
-0.33699006 3.2062461 -0.16639568 9
-0.3337028 3.1803091 -0.0551496 11
-0.34262547 3.2708461 0.87035877 58
-0.34247419 3.2749186 0.75076848 38
-0.34186915 3.2746572 0.63196379 55
-0.34081867 3.2701218 0.51410228 49
-0.34035909 3.2712495 0.39855474 54
-0.34102055 3.2831743 0.28486562 56
-0.33920792 3.2712791 0.1697862 53
-0.33801374 3.2653172 0.056066785 65
-0.28153118 2.7430487 -0.72810096 4
-0.31227523 3.0478351 -0.697945 54
-0.31153706 3.0458734 -0.58716398 18
-0.28581089 2.7991772 -0.43909645 56
-0.33300379 3.2670178 -0.39794627 77
-0.32102871 3.1549916 -0.2741048 9
-0.32680529 3.2173383 -0.16691731 9
-0.32360807 3.1914022 -0.055324122 11
-0.33120599 3.272022 0.87035877 55
-0.33055073 3.2712467 0.74964464 38
-0.33043635 3.2758307 0.63196379 55
-0.32940173 3.2712915 0.51410228 52
-0.32893819 3.2724178 0.39855474 57
-0.32906076 3.2793887 0.28443071 61
-0.32778695 3.2724431 0.1697862 68
-0.32661361 3.2664773 0.056066785 65
-0.27385986 2.7632401 -0.73327404 16
-0.30163437 3.0489066 -0.697945 48
-0.30138543 3.0518267 -0.58811718 20
-0.2760382 2.8001578 -0.43909645 56
-0.32159773 3.2681603 -0.39794627 79
-0.31098762 3.1660075 -0.27497637 8
-0.31654721 3.2283981 -0.16743892 9
-0.31295303 3.1974878 -0.055411387 11
-0.3197825 3.2731583 0.87035877 59
-0.31912994 3.2723808 0.74964464 38
-0.31899956 3.2769642 0.63196379 58
-0.3179808 3.2724214 0.51410228 52
-0.31751335 3.273546 0.39855474 58
-0.31761158 3.2805171 0.28443071 54
-0.31636199 3.2735674 0.1697862 58
-0.31520948 3.2675974 0.056066785 65
-0.26651049 2.7882187 -0.73974025 9
-0.29098988 3.0499408 -0.697945 53
-0.29119608 3.0577466 -0.58907038 18
-0.26626214 2.8011043 -0.43909645 46
-0.31018776 3.269263 -0.39794627 74
-0.30040389 3.1720321 -0.27541214 8
-0.30621588 3.2394257 -0.16796054 9
-0.30272898 3.2085152 -0.05558591 11
-0.30835506 3.2742546 0.87035877 60
-0.30770525 3.2734749 0.74964464 39
-0.30755886 3.2780578 0.63196379 56
-0.30655599 3.2735114 0.51410228 52
-0.3056227 3.2696929 0.39794627 60
-0.30569577 3.2766461 0.28399581 57
-0.30493319 3.2746515 0.1697862 60
-0.30380148 3.2686779 0.056066785 67
-0.27537283 2.9911318 -0.79405689 38
-0.2803418 3.0509379 -0.697945 52
-0.28141728 3.0685198 -0.59097672 16
-0.256933 2.8069346 -0.43987775 29
-0.298774 3.2703259 -0.39794627 75
-0.29023421 3.1829822 -0.27628368 8
-0.29581141 3.2504203 -0.16848217 8
-0.29243177 3.2195096 -0.055760436 11
-0.29692394 3.275311 0.87035877 61
-0.29627681 3.274529 0.74964464 40
-0.29567304 3.2742231 0.63101065 54
-0.29512742 3.2745614 0.51410228 49
-0.29420748 3.2707398 0.39794627 57
-0.29425627 3.2776933 0.28399581 60
-0.29350066 3.275696 0.1697862 60
-0.29238981 3.2697186 0.056066785 65
-0.26663414 3.0113187 -0.79922986 63
-0.26926148 3.0470448 -0.69682103 49
-0.27113566 3.074373 -0.59192997 17
-0.24626741 2.7979753 -0.43831512 6
-0.28692237 3.2664049 -0.39733776 75
-0.27955678 3.1889379 -0.27671948 8
-0.2848987 3.256407 -0.16874297 8
-0.28206149 3.2304716 -0.055934958 10
-0.28548914 3.2763276 0.87035877 62
-0.28484476 3.2755432 0.74964464 41
-0.28424206 3.2752352 0.63101065 58
-0.28369528 3.2755718 0.51410228 52
-0.28278869 3.2717469 0.39794627 63
-0.28281319 3.2787006 0.28399581 54
-0.28206456 3.2767007 0.1697862 61
-0.28040373 3.2707682 0.056066785 65
-0.25600368 3.0170887 -0.80052316 42
-0.25809169 3.0480113 -0.69682103 47
-0.26069227 3.0851278 -0.59383631 16
-0.23725559 2.8136225 -0.44065908 3
-0.27494845 3.2674346 -0.39733776 52
-0.26870045 3.1998682 -0.27759105 8
-0.27337843 3.2624054 -0.16900378 8
-0.27105248 3.2414472 -0.056109484 11
-0.2734789 3.2773519 0.87035877 59
-0.2728374 3.2765651 0.74964464 38
-0.27223581 3.2762551 0.63101065 51
-0.27127969 3.2716677 0.51332092 53
-0.27079523 3.2727616 0.39794627 61
-0.27079427 3.2797151 0.28399581 51
-0.27005297 3.2777126 0.1697862 58
-0.26898491 3.2717271 0.056066785 63
-0.24547052 3.0179639 -0.80052316 34
-0.24745059 3.0488935 -0.69682103 47
-0.25031775 3.0909114 -0.59478951 16
-0.23141064 2.8636589 -0.44847217 4
-0.26354131 3.2683744 -0.39733776 39
-0.25872755 3.2156813 -0.27889836 8
-0.26198885 3.2633398 -0.16900378 8
-0.26053447 3.2523401 -0.056284007 9
-0.26203713 3.2782865 0.87035877 60
-0.2613984 3.2774975 0.74964464 38
-0.26079789 3.2771854 0.63101065 49
-0.25985777 3.2725949 0.51332092 52
-0.25936952 3.2736866 0.39794627 63
-0.25934428 3.2806401 0.28399581 55
-0.25821733 3.2736573 0.1695254 57
-0.25756285 3.272646 0.056066785 65
-0.23493437 3.0188022 -0.80052316 32
-0.23680647 3.0497389 -0.69682103 47
-0.23952693 3.0917661 -0.59478951 15
-0.2259804 2.9235356 -0.45784789 12
-0.25213096 3.2692745 -0.39733776 72
-0.24826548 3.2264977 -0.27976996 8
-0.25059605 3.2642341 -0.16900378 23
-0.24956191 3.2582147 -0.056371272 51
-0.25059217 3.2791812 0.87035877 57
-0.24995619 3.2783902 0.74964464 39
-0.24935679 3.2780757 0.63101065 57
-0.24843273 3.2734821 0.51332092 47
-0.24794063 3.2745719 0.39794627 57
-0.24789111 3.2815254 0.28399581 58
-0.24678858 3.2745388 0.1695254 61
-0.24613757 3.2735252 0.056066785 65
-0.22439533 3.0196042 -0.80052316 31
-0.22615942 3.0505469 -0.69682103 50
-0.22800913 3.0827935 -0.59288311 15
-0.21613741 2.9292321 -0.45862922 12
-0.24071752 3.2701347 -0.39733776 74
-0.23809575 3.2422471 -0.28107727 19
-0.23920022 3.265089 -0.16900378 67
-0.2385515 3.2640517 -0.056458529 83
-0.23914419 3.2800357 0.87035877 51
-0.23851095 3.2792425 0.74964464 39
-0.23791264 3.2789261 0.63101065 58
-0.23700461 3.2743292 0.51332092 53
-0.23650874 3.2754178 0.39794627 63
-0.23643495 3.282371 0.28399581 63
-0.23535679 3.2753806 0.1695254 56
-0.23470937 3.2743645 0.056066785 74
-0.2138536 3.0203691 -0.80052316 30
-0.21550968 3.0513175 -0.69682103 50
-0.21690184 3.0786746 -0.59192997 13
-0.20660359 2.9398212 -0.46019182 13
-0.22930115 3.2709548 -0.39733776 79
-0.22816657 3.262934 -0.28282037 72
-0.22780149 3.2659042 -0.16900378 75
-0.22750334 3.2698517 -0.056545794 84
-0.22769324 3.2808506 0.87035877 53
-0.22672634 3.2751949 0.74852067 39
-0.2264656 3.2797368 0.63101065 56
-0.22557361 3.2751367 0.51332092 47
-0.22507395 3.2762234 0.39794627 57
-0.2249759 3.2831762 0.28399581 58
-0.22392215 3.2761819 0.1695254 61
-0.22293824 3.2701762 0.055980396 61
-0.20330921 3.0210969 -0.80052316 29
-0.20485726 3.0520513 -0.69682103 45
-0.20582606 3.0745153 -0.59097672 13
-0.19666946 2.9454527 -0.46097314 13
-0.21788198 3.2717354 -0.39733776 77
-0.21776573 3.2786207 -0.28412771 76
-0.21672998 3.2716615 -0.16926458 79
-0.21641763 3.2756143 -0.056633055 81
-0.21592197 3.2768064 0.86906546 55
-0.21529239 3.2759662 0.74852067 38
-0.21469475 3.2756095 0.63005745 62
-0.21413989 3.2759039 0.51332092 50
-0.21363641 3.276989 0.39794627 54
-0.21351409 3.2839415 0.28399581 64
-0.21248476 3.2769437 0.1695254 58
-0.21152185 3.2709346 0.055980396 63
-0.1927624 3.0217884 -0.80052316 28
-0.19420236 3.0527477 -0.69682103 49
-0.19478199 3.0703168 -0.59002358 12
-0.18638672 2.946121 -0.46097314 10
-0.2061477 3.2675233 -0.39672932 75
-0.20600715 3.27439 -0.28369194 75
-0.20530845 3.272398 -0.16926458 80
-0.2049823 3.2763498 -0.056633055 83
-0.20448247 3.27754 0.86906546 49
-0.20385581 3.2766979 0.74852067 39
-0.20325945 3.2763386 0.63005745 61
-0.20270355 3.2766316 0.51332092 46
-0.20219631 3.277715 0.39794627 52
-0.2020497 3.2846668 0.28399581 64
-0.20104483 3.2776654 0.1695254 61
-0.20010285 3.2716527 0.055980396 65
-0.1822132 3.0224428 -0.80052316 29
-0.1835451 3.053407 -0.69682103 49
-0.18376975 3.0660787 -0.58907038 11
-0.1763963 2.9516833 -0.46175444 10
-0.19474067 3.2682228 -0.39672932 74
-0.19457613 3.275089 -0.28369194 77
-0.19388439 3.2730949 -0.16926458 79
-0.19354445 3.2770452 -0.056633055 84
-0.19304049 3.2782338 0.86906546 50
-0.19241677 3.2773893 0.74852067 39
-0.19182166 3.2770283 0.63005745 58
-0.19126475 3.2773194 0.51332092 50
-0.19046544 3.2734458 0.39733776 51
-0.19058284 3.285352 0.28399581 62
-0.1896024 3.278347 0.1695254 58
-0.18868144 3.2723312 0.055980396 63
-0.17166179 3.0230603 -0.80052316 27
-0.17288561 3.0540292 -0.69682103 52
-0.17278945 3.061801 -0.58811718 12
-0.16609193 2.952281 -0.46175444 10
-0.18333124 3.2688828 -0.39672932 78
-0.18314275 3.275748 -0.28369194 78
-0.18245798 3.2737517 -0.16926458 77
-0.18210423 3.2777007 -0.056633055 86
-0.18159615 3.2788875 0.86906546 54
-0.18097538 3.2780409 0.74852067 39
-0.18038152 3.277678 0.63005745 54
-0.17955309 3.273036 0.51253963 50
-0.17903782 3.274091 0.39733776 52
-0.17911366 3.2859972 0.28399581 59
-0.17815767 3.2789891 0.1695254 60
-0.17725773 3.27297 0.055980396 65
-0.16110831 3.0236413 -0.80052316 28
-0.16222399 3.0546141 -0.69682103 53
-0.16184127 3.0574839 -0.58716398 11
-0.15630591 2.9627063 -0.46331707 11
-0.1719196 3.2695029 -0.39672932 75
-0.17170714 3.2763674 -0.28369194 78
-0.17102933 3.2743685 -0.16926458 78
-0.17066181 3.2783165 -0.056633055 86
-0.17014959 3.2795017 0.86906546 53
-0.16953176 3.2786527 0.74852067 38
-0.1689392 3.2782876 0.63005745 52
-0.16812696 3.2736428 0.51253963 50
-0.16760802 3.2746959 0.39733776 58
-0.16764231 3.2866025 0.28399581 60
-0.16671078 3.2795908 0.1695254 58
-0.16526049 3.2735977 0.055980396 61
-0.15002504 3.0242114 -0.80052316 26
-0.1510272 3.0551882 -0.69682103 52
-0.15063395 3.0580566 -0.58716398 11
-0.14593022 2.9731247 -0.46487969 11
-0.1599351 3.2701111 -0.39672932 79
-0.1596975 3.2769749 -0.28369194 78
-0.15902703 3.2749734 -0.16926458 76
-0.15864505 3.2789199 -0.056633055 86
-0.15812846 3.280103 0.86906546 56
-0.15751378 3.2792521 0.74852067 39
-0.15692253 3.2788846 0.63005745 57
-0.15612733 3.2742369 0.51253963 53
-0.15560451 3.2752881 0.39733776 60
-0.15559518 3.287195 0.28399581 61
-0.15445416 3.2751923 0.16926458 58
-0.15383251 3.2741547 0.055980396 65
-0.13946766 3.0247166 -0.80052316 27
-0.14036168 3.0556967 -0.69682103 54
-0.13973406 3.0536604 -0.58621085 11
-0.13622585 2.9884164 -0.46722364 11
-0.14851932 3.2706494 -0.39672932 75
-0.14825775 3.2775123 -0.28369194 78
-0.1473695 3.2705207 -0.16900378 78
-0.1471985 3.2794538 -0.056633055 86
-0.14667781 3.2806351 0.86906546 55
-0.14606608 3.2797821 0.74852067 37
-0.14547615 3.2794127 0.63005745 55
-0.14469716 3.2747619 0.51253963 54
-0.14417069 3.2758114 0.39733776 61
-0.14411978 3.2877178 0.28399581 60
-0.14302064 3.2757115 0.16926458 58
-0.14240263 3.2746718 0.055980396 67
-0.12890857 3.0251851 -0.80052316 28
-0.12948787 3.0513003 -0.69569719 53
-0.12907393 3.0541296 -0.58621085 11
-0.12620883 2.9987419 -0.46878624 12
-0.13710171 3.271148 -0.39672932 75
-0.13660848 3.2730331 -0.28325617 78
-0.13595237 3.2710154 -0.16900378 78
-0.13554344 3.2749527 -0.056545794 88
-0.13522537 3.2811272 0.86906546 52
-0.13461661 3.2802718 0.74852067 39
-0.13402796 3.2799003 0.63005745 61
-0.13306445 3.2703123 0.51175833 54
-0.1327351 3.2762947 0.39733776 55
-0.13264263 3.2882009 0.28399581 58
-0.13158542 3.2761908 0.16926458 71
-0.13097103 3.2751486 0.055980396 70
-0.11834792 3.0256166 -0.80052316 27
-0.11883605 3.0517337 -0.69569719 54
-0.11841225 3.0545616 -0.58621085 11
-0.11688316 3.0287738 -0.47347412 13
-0.12549193 3.2666473 -0.39612082 78
-0.12518264 3.2734902 -0.28325617 78
-0.12453357 3.2714698 -0.16900378 79
-0.12411091 3.2754059 -0.056545794 86
-0.12377126 3.281579 0.86906546 58
-0.12316553 3.2807217 0.74852067 40
-0.12257817 3.2803481 0.63005745 52
-0.12164811 3.270757 0.51175833 54
-0.12129788 3.2767382 0.39733776 46
-0.12098047 3.2836666 0.2835609 59
-0.12014858 3.2766299 0.16926458 58
-0.11953782 3.2755859 0.055980396 65
-0.10778582 3.0260112 -0.80052316 31
-0.1081828 3.05213 -0.69569719 51
-0.10792213 3.0598614 -0.58716398 11
-0.10631005 3.0291631 -0.47347412 14
-0.11408843 3.2670653 -0.39612082 76
-0.11375526 3.2739069 -0.28325617 80
-0.11311325 3.2718844 -0.16900378 78
-0.11267685 3.2758191 -0.056545794 86
-0.11231565 3.281991 0.86906546 59
-0.11171291 3.2811315 0.74852067 39
-0.11112687 3.280756 0.63005745 53
-0.1102303 3.2711618 0.51175833 56
-0.10985919 3.2771416 0.39733776 54
-0.10951759 3.2840688 0.2835609 60
-0.10871026 3.2770295 0.16926458 61
-0.10810316 3.2759833 0.055980396 65
-0.097067326 3.0215414 -0.79922986 30
-0.097528212 3.0524888 -0.69569719 57
-0.09724056 3.0602195 -0.58716398 11
-0.09495572 3.0048354 -0.46956754 9
-0.10268355 3.2674437 -0.39612082 78
-0.1023265 3.2742841 -0.28325617 80
-0.10184664 3.2772501 -0.16926458 80
-0.10124142 3.2761927 -0.056545794 88
-0.10085868 3.2823632 0.86906546 55
-0.10025894 3.2815015 0.74852067 40
-0.09967421 3.2811239 0.63005745 57
-0.098960243 3.276463 0.51253963 56
-0.098419167 3.2775052 0.39733776 55
-0.098053388 3.2844312 0.2835609 60
-0.097270638 3.2773893 0.16926458 63
-0.096667193 3.2763407 0.055980396 67
-0.086519592 3.0218618 -0.79922986 34
-0.086872451 3.0528107 -0.69569719 50
-0.086557813 3.0605404 -0.58716398 11
-0.082801253 2.945909 -0.46019182 7
-0.091277428 3.2677824 -0.39612082 79
-0.09089648 3.2746212 -0.28325617 80
-0.090406291 3.2775855 -0.16926458 83
-0.089804761 3.276526 -0.056545794 86
-0.089400485 3.2826955 0.86906546 55
-0.088803746 3.2818315 0.74852067 44
-0.088220343 3.2814519 0.63005745 59
-0.087522656 3.2767887 0.51253963 50
-0.086977929 3.2778287 0.39733776 55
-0.086587988 3.2847533 0.2835609 64
-0.085829824 3.2777085 0.16926458 60
-0.085230038 3.2766583 0.055980396 61
-0.075970799 3.0221455 -0.79922986 29
-0.076215617 3.0530956 -0.69569719 52
-0.075874001 3.0608242 -0.58716398 11
-0.071059339 2.8869352 -0.45081612 6
-0.079870187 3.2680809 -0.39612082 76
-0.079465374 3.2749188 -0.28325617 78
-0.078964822 3.2778814 -0.16926458 80
-0.078367002 3.2768195 -0.056545794 84
-0.077941202 3.2829874 0.86906546 53
-0.07734748 3.2821217 0.74852067 39
-0.076765403 3.28174 0.63005745 55
-0.076083988 3.2770741 0.51253963 52
-0.075535648 3.2781124 0.39733776 57
-0.075121537 3.2850356 0.2835609 59
-0.07438796 3.2779884 0.16926458 61
-0.073791854 3.2769356 0.055980396 65
-0.065316565 3.0175638 -0.79793668 28
-0.065662444 3.0582139 -0.69682103 49
-0.065293774 3.0659776 -0.58811718 12
-0.060773049 2.8772905 -0.4492535 6
-0.068461962 3.2683399 -0.39612082 83
-0.068136737 3.2801564 -0.28369194 84
-0.067522399 3.278137 -0.16926458 83
-0.067030363 3.2820714 -0.056633055 86
-0.06648095 3.2832394 0.86906546 56
-0.065890267 3.2823718 0.74852067 40
-0.065309525 3.2819877 0.63005745 53
-0.064644404 3.2773197 0.51253963 52
-0.064092442 3.2783558 0.39733776 52
-0.063654162 3.2852778 0.2835609 63
-0.062945187 3.278228 0.16926458 58
-0.062352762 3.2771733 0.055980396 67
-0.054958232 3.0274315 -0.80052316 26
-0.054986887 3.0584245 -0.69682103 56
-0.054591123 3.0661869 -0.58811718 12
-0.050729062 2.877485 -0.4492535 6
-0.057052907 3.268559 -0.39612082 76
-0.056686439 3.2803741 -0.28369194 82
-0.056079157 3.2783527 -0.16926458 80
-0.055573393 3.2822852 -0.056633055 86
-0.055019908 3.2834516 0.86906546 53
-0.054432251 3.2825816 0.74852067 40
-0.053852849 3.282196 0.63005745 57
-0.05320403 3.2775254 0.51253963 50
-0.052648451 3.2785597 0.39733776 54
-0.052186012 3.28548 0.2835609 64
-0.051580086 3.2834201 0.1695254 63
-0.050835252 3.2723722 0.055894006 65
-0.04424857 3.0179462 -0.79793668 24
-0.044310659 3.0585978 -0.69682103 48
-0.043887801 3.0663586 -0.58811718 12
-0.040963717 2.897397 -0.45237872 6
-0.045643162 3.268738 -0.39612082 77
-0.045235448 3.2805519 -0.28369194 82
-0.044635225 3.2785282 -0.16926458 83
-0.044115741 3.2824593 -0.056633055 86
-0.043558184 3.2836235 0.86906546 50
-0.042973571 3.2827516 0.74852067 39
-0.042395521 3.2823639 0.63005745 60
-0.041763008 3.2776911 0.51253963 53
-0.041203827 3.2787235 0.39733776 66
-0.040717229 3.2856421 0.2835609 65
-0.040118501 3.2835803 0.1695254 60
-0.039412234 3.2725296 0.055894006 74
-0.033713702 3.0180821 -0.79793668 9
-0.033633888 3.0587337 -0.69682103 49
-0.033183943 3.0664933 -0.58811718 11
-0.030797081 2.8925838 -0.45159739 7
-0.034232859 3.2688775 -0.39612082 80
-0.033732619 3.2757092 -0.28325617 84
-0.033190757 3.2786641 -0.16926458 84
-0.032657553 3.2825933 -0.056633055 88
-0.032095939 3.2837555 0.86906546 52
-0.031514369 3.2828817 0.74852067 40
-0.030937672 3.2824919 0.63005745 59
-0.030321475 3.2778168 0.51253963 52
-0.029758692 3.2788475 0.39733776 58
-0.029247949 3.2857642 0.2835609 58
-0.028656419 3.2837005 0.1695254 63
-0.027417548 3.2726521 0.055894006 67
nan nan nan 0
-0.022422843 3.0588365 -0.69682103 54
-0.021944461 3.0665939 -0.58811718 12
-0.020332936 2.9124312 -0.45472264 7
-0.022251593 3.268981 -0.39612082 78
-0.021726316 3.2758107 -0.28325617 82
-0.021173626 3.2787638 -0.16926458 83
-0.020626025 3.282691 -0.056633055 90
-0.020060156 3.2838511 0.86906546 52
-0.019481795 3.2829752 0.74852067 39
-0.018906532 3.2825832 0.63005745 66
-0.018307472 3.2779062 0.51253963 52
-0.017740915 3.2789345 0.39733776 58
-0.017204825 3.2858493 0.2835609 60
-0.016620863 3.2837834 0.1695254 61
-0.016018124 3.2777274 0.055980396 65
nan nan nan 0
-0.011745376 3.0588961 -0.69682103 58
-0.011257906 3.0715601 -0.58907038 12
-0.010338919 2.96187 -0.46253577 8
-0.010840584 3.2690389 -0.39612082 80
-0.010291473 3.2758665 -0.28325617 80
-0.0097284773 3.2788177 -0.16926458 83
-0.009167172 3.282743 -0.056633055 84
-0.0085972529 3.2839015 0.86906546 55
-0.0080219544 3.2830231 0.74852067 39
-0.0074480618 3.2826293 0.63005745 59
-0.0068549886 3.2730112 0.51175833 54
-0.0063047186 3.2839394 0.39794627 52
-0.0057349647 3.2858894 0.2835609 57
-0.0051582186 3.2838213 0.1695254 64
-0.0045766239 3.2777634 0.055980396 63
-0.0010948126 2.0909381 -0.54963219 2
-0.0010677641 3.0589185 -0.69682103 56
-0.00053609197 3.0715809 -0.58907038 13
-5.5316201e-16 3.0112739 -0.47034886 10
0.00057055807 3.2690568 -0.39612082 78
0.0011434988 3.2758825 -0.28325617 82
0.0017167925 3.2788317 -0.16926458 83
0.0022917956 3.2827549 -0.056633055 88
0.0028657536 3.2839112 0.86906546 57
0.0034379833 3.2830312 0.74852067 40
0.0040104971 3.282635 0.63005745 58
0.0045699943 3.2730153 0.51175833 52
0.0051584071 3.2839413 0.39794627 51
0.0057349647 3.2858894 0.2835609 60
0.0063044885 3.2838194 0.1695254 60
0.0068649333 3.2777593 0.055980396 61
0.0062469211 2.1054184 -0.55351192 2
0.0096098613 3.0589035 -0.69682103 59
0.010202006 3.0764723 -0.59002358 12
0.010614741 3.0408869 -0.47503674 10
0.011981692 3.2690349 -0.39612082 80
0.012578456 3.2758586 -0.28325617 80
0.013162042 3.278806 -0.16926458 80
0.013750735 3.282727 -0.056633055 86
0.014328726 3.2838812 0.86906546 58
0.014897879 3.282999 0.74852067 38
0.015469008 3.2826011 0.63005745 58
0.015994921 3.2729793 0.51175833 53
0.01662147 3.2839034 0.39794627 55
0.017204825 3.2858493 0.2835609 60
0.017740102 3.2787843 0.16926458 63
0.018306406 3.2777154 0.055980396 61
0.013471408 2.0860651 -0.54833895 2
0.020287367 3.0588515 -0.69682103 52
0.020940837 3.0764179 -0.59002358 12
0.021194872 3.0358925 -0.47425541 11
0.023392681 3.2689731 -0.39612082 81
0.024013259 3.2757947 -0.28325617 80
0.024607129 3.2787402 -0.16926458 80
0.025209505 3.2826586 -0.056633055 88
0.025791522 3.2838111 0.86906546 55
0.026357593 3.282927 0.74852067 38
0.02692733 3.2825274 0.63005745 53
0.027419653 3.2729034 0.51175833 60
0.02808433 3.2838252 0.39794627 61
0.028674474 3.2857692 0.2835609 60
0.029185086 3.2787023 0.16926458 60
0.029747657 3.2776315 0.055980396 55
0.020993292 2.1101532 -0.55480522 3
0.03096463 3.0587621 -0.69682103 54
0.031729952 3.0812342 -0.59097672 12
0.031688556 3.0259235 -0.47269279 10
0.034803383 3.2688715 -0.39612082 79
0.035447773 3.275691 -0.28325617 80
0.036051914 3.2786341 -0.16926458 80
0.036667969 3.2825508 -0.056633055 88
0.037254002 3.2837012 0.86906546 57
0.037816986 3.282815 0.74852067 38
0.038385324 3.2824132 0.63005745 52
0.038844049 3.2727878 0.51175833 49
0.039546847 3.2837069 0.39794627 60
0.040143777 3.2856491 0.2835609 55
0.040629718 3.2785807 0.16926458 57
0.041188546 3.2775075 0.055980396 63
0.028229162 2.1004086 -0.55221874 3
0.041840486 3.0732501 -0.70019281 29
0.042485271 3.0811045 -0.59097672 12
0.041974995 3.0060422 -0.46956754 9
0.046213664 3.2687299 -0.39612082 81
0.046881851 3.2755473 -0.28325617 80
0.047496263 3.2784882 -0.16926458 84
0.048125986 3.282403 -0.056633055 86
0.048716035 3.283551 0.86906546 55
0.04927592 3.2826631 0.74852067 38
0.049842853 3.2822592 0.63005745 61
0.05026798 3.2726324 0.51175833 53
0.051008888 3.2835493 0.39794627 71
0.051612586 3.2854888 0.2835609 55
0.052073851 3.2784188 0.16926458 56
0.052628927 3.2773438 0.055980396 63
0.035642546 2.1051261 -0.55351192 3
0.052401219 3.0633428 -0.697945 5
0.053240076 3.0809374 -0.59097672 12
0.0514335 2.9466236 -0.46019182 7
0.057623383 3.2685487 -0.39612082 83
0.058404032 3.280344 -0.28369194 80
0.058940034 3.2783024 -0.16926458 79
0.059583418 3.2822149 -0.056633055 88
0.060177471 3.283361 0.86906546 51
0.060734253 3.2824712 0.74852067 39
0.061299771 3.2820654 0.63005745 60
0.061691288 3.2724371 0.51175833 56
0.062470302 3.2833512 0.39794627 63
0.063080765 3.285289 0.2835609 64
0.063614078 3.2832093 0.1695254 60
0.064068675 3.2771401 0.055980396 67
0.042990588 2.1049888 -0.55351192 3
nan nan nan 0
0.063994229 3.0807328 -0.59097672 12
0.060684573 2.8970511 -0.45237872 6
0.069032393 3.2683277 -0.39612082 80
0.069854207 3.2801201 -0.28369194 80
0.070383087 3.2780766 -0.16926458 82
0.071040124 3.281987 -0.056633055 86
0.071638174 3.2831309 0.86906546 53
0.072191849 3.282239 0.74852067 38
0.072864734 3.2867386 0.63101065 64
0.073113851 3.2722018 0.51175833 56
0.073930956 3.283113 0.39794627 58
0.074548177 3.2850487 0.2835609 56
0.075074233 3.2829671 0.1695254 68
0.075507641 3.2768967 0.055980396 70
0.050222639 2.0999975 -0.55221874 2
nan nan nan 0
0.074747607 3.0804906 -0.59097672 12
0.070314161 2.8770733 -0.4492535 6
0.080562681 3.2730286 -0.39672932 81
0.081303537 3.2798564 -0.28369194 80
0.081825286 3.2778111 -0.16926458 82
0.082621597 3.2867167 -0.05672032 86
0.083098002 3.282861 0.86906546 57
0.083648562 3.2819669 0.74852067 39
0.084337153 3.2864642 0.63101065 55
0.084663086 3.2768638 0.51253963 57
0.085390702 3.282835 0.39794627 63
0.086014688 3.2847683 0.2835609 61
0.086533464 3.282685 0.1695254 64
0.086945675 3.2766132 0.055980396 70
0.057420354 2.0949812 -0.55092543 2
nan nan nan 0
0.085500062 3.0802107 -0.59097672 11
0.08035659 2.8768103 -0.4492535 6
0.0919872 3.2727273 -0.39672932 80
0.092751876 3.2795525 -0.28369194 84
0.09326648 3.2775054 -0.16926458 82
0.094093882 3.2864082 -0.05672032 90
0.094695888 3.2873788 0.87035877 57
0.095104255 3.2816551 0.74852067 39
0.095808536 3.2861497 0.63101065 47
0.096100956 3.2765481 0.51253963 57
0.096849419 3.2825167 0.39794627 57
0.097480148 3.2844484 0.2835609 64
0.097991653 3.2823632 0.1695254 68
0.098382667 3.2762897 0.055980396 72
0.064583682 2.0899408 -0.54963219 2
0.064900078 2.0883734 -0.47316399 2
0.096251488 3.0798936 -0.59097672 10
0.09055315 2.881448 -0.4500348 6
0.10341059 3.2723861 -0.39672932 79
0.10435728 3.2841871 -0.28412771 82
0.10486599 3.2821505 -0.1695254 83
0.10556501 3.2860596 -0.05672032 86
0.10617041 3.2870283 0.87035877 59
0.10671692 3.2861726 0.74964464 39
0.10727876 3.2857955 0.63101065 48
0.10753766 3.2761929 0.51253963 47
0.10830694 3.2821589 0.39794627 55
0.10894441 3.2840879 0.2835609 57
0.10944863 3.282001 0.1695254 67
0.10981845 3.2759264 0.055980396 63
0.071878545 2.0897024 -0.54963219 2
0.071684465 2.0735264 -0.46979225 7
0.10700174 3.0795388 -0.59097672 8
0.10095544 2.8909857 -0.45159739 6
0.11483271 3.2720051 -0.39672932 81
0.1158206 3.2838027 -0.28412771 84
0.1163222 3.2817645 -0.1695254 86
0.11703485 3.2856712 -0.05672032 90
0.11764362 3.2866373 0.87035877 61
0.11818716 3.28578 0.74964464 38
0.11874767 3.2854009 0.63101065 49
0.11897305 3.2757974 0.51253963 53
0.11976316 3.2817607 0.39794627 57
0.12058988 3.2886648 0.28399581 56
0.12108813 3.2865887 0.1697862 65
0.1212529 3.2755229 0.055980396 67
0.078989647 2.0846126 -0.54833895 2
0.077810027 2.0440526 -0.46304882 25
0.11718801 3.0644326 -0.58811718 5
0.11047751 2.8758111 -0.4492535 6
0.12625344 3.2715845 -0.39672932 83
0.12728252 3.2833788 -0.28412771 82
0.12777698 3.2813385 -0.1695254 84
0.12850328 3.2852428 -0.05672032 90
0.12911543 3.2862067 0.87035877 60
0.12965594 3.2853475 0.74964464 39
0.13021514 3.2849662 0.63101065 51
0.13040699 3.2753623 0.51253963 53
0.13121791 3.2813227 0.39794627 64
0.13206872 3.288224 0.28399581 68
0.13255973 3.2861459 0.1697862 60
0.13288824 3.2800748 0.056066785 67
0.08606609 2.0794983 -0.54704571 3
0.083326064 2.0048258 -0.4540576 22
0.12706542 3.0443888 -0.58430439 4
0.12237654 2.9198158 -0.45628527 7
0.13767265 3.2711239 -0.39672932 79
0.13874285 3.2829144 -0.28412771 80
0.13923022 3.2808726 -0.1695254 83
0.13997014 3.2847743 -0.05672032 88
0.14058563 3.2857361 0.87035877 64
0.14112316 3.2848749 0.74964464 39
0.14168102 3.2844918 0.63101065 53
0.14205302 3.2798207 0.51332092 56
0.1428867 3.2858031 0.39855474 66
0.14354596 3.2877431 0.28399581 66
0.14402971 3.2856634 0.1697862 60
0.14433703 3.2795908 0.056066785 70
0.092891231 2.0695355 -0.54445922 24
0.090543009 2.0093899 -0.45518148 21
0.13724795 3.0341201 -0.58239806 3
0.13548023 2.9835064 -0.46644232 8
0.14931613 3.2755811 -0.39733776 77
0.15020153 3.2824099 -0.28412771 82
0.15068176 3.2803664 -0.1695254 82
0.15143529 3.2842658 -0.05672032 86
0.15227745 3.29005 0.87165201 64
0.15258865 3.2843623 0.74964464 38
0.15314516 3.2839773 0.63101065 60
0.15350087 3.279305 0.51332092 46
0.15435542 3.285284 0.39855474 61
0.15525611 3.2921977 0.28443071 56
0.15549794 3.2851405 0.1697862 63
0.15578406 3.279067 0.056066785 65
0.099647872 2.05955 -0.54187268 25
0.097320244 2.0041952 -0.4540576 25
0.14879383 3.0532324 -0.58621085 10
0.14903001 3.0471404 -0.47659937 9
0.16074915 3.2750397 -0.39733776 79
0.16165836 3.2818658 -0.28412771 84
0.16213146 3.2798204 -0.1695254 81
