# .PCD v0.7 - Point Cloud Data file format
VERSION 0.7
FIELDS x y z intensity
SIZE 4 4 4 4
TYPE F F F F
COUNT 1 1 1 1
WIDTH 1374
HEIGHT 1
VIEWPOINT 0 0 0 1 0 0 0
POINTS 1374
DATA ascii
0.13516566 1.9281228 -0.36793068 3
0.21560526 3.0679085 -0.48050591 11
0.2307917 3.2758253 -0.39794627 81
0.2318482 3.2826481 -0.28456348 80
0.23227935 3.2806058 -0.1697862 79
0.23348451 3.2894778 -0.056894843 85
0.23376186 3.2852662 0.87165201 64
0.23427866 3.2844319 0.75076848 38
0.23517899 3.2889655 0.63291705 57
0.23542486 3.2843459 0.51488352 56
0.2357211 3.2804503 0.39855474 58
0.23679283 3.2873394 0.28443071 53
0.23685971 3.2802784 0.1697862 63
0.23771705 3.2841721 0.056239564 67
0.14783216 2.0179126 -0.53152668 37
0.14552931 1.9817322 -0.44956198 37
0.14297622 1.9423243 -0.37079024 3
0.22631294 3.0671372 -0.48050591 11
0.24222507 3.2749999 -0.39794627 79
0.24330533 3.2818191 -0.28456348 84
0.24372938 3.2797751 -0.1697862 84
0.24496552 3.2886429 -0.056894843 85
0.24522817 3.2844303 0.87165201 66
0.24574204 3.2835941 0.75076848 38
0.24665819 3.2881246 0.63291705 59
0.24688791 3.283504 0.51488352 52
0.24754354 3.2845562 0.39916322 55
0.24826634 3.2864926 0.28443071 59
0.24830855 3.2794313 0.1697862 58
0.24917951 3.2833221 0.056239564 63
0.15487507 2.0173843 -0.53152668 38
0.15244597 1.9812121 -0.44956198 36
0.14900051 1.9320259 -0.36888388 3
0.23701787 3.0663288 -0.48050591 11
0.25365546 3.2741344 -0.39794627 79
0.25475955 3.2809498 -0.28456348 80
0.25556386 3.2838824 -0.17004701 82
0.25644353 3.2877674 -0.056894843 86
0.25669149 3.2835541 0.87165201 67
0.25720242 3.2827163 0.75076848 38
0.25813439 3.2872434 0.63291705 61
0.25873548 3.2875457 0.51566488 57
0.25900728 3.2836719 0.39916322 60
0.25973684 3.2856059 0.28443071 63
0.26014879 3.2835224 0.17004701 63
0.26063892 3.2824323 0.056239564 65
0.1615296 2.012017 -0.53023344 43
0.15897003 1.9758117 -0.44843808 38
0.15574361 1.931494 -0.36888388 3
0.2477199 3.0654829 -0.48050591 11
0.26508281 3.2732291 -0.39794627 81
0.26621065 3.2800403 -0.28456348 78
0.2670252 3.2829702 -0.17004701 83
0.26791844 3.2868524 -0.056894843 90
0.26854488 3.287452 0.87294525 65
0.26865968 3.2817986 0.75076848 38
0.26960742 3.2863221 0.63291705 62
0.27020955 3.2866225 0.51566488 52
0.27046785 3.282748 0.39916322 57
0.27120414 3.2846794 0.28443071 60
0.27160883 3.2825944 0.17004701 63
0.27250829 3.2864847 0.056325953 67
0.16855186 2.0114408 -0.53023344 40
0.16586593 1.9752446 -0.44843808 40
0.16207327 1.9260477 -0.36793068 3
0.25883389 3.0695205 -0.48128721 11
0.27692476 3.2772291 -0.39855474 79
0.27807876 3.2840545 -0.28499928 82
0.27848327 3.2820182 -0.17004701 82
0.27939004 3.2858973 -0.056894843 86
0.28001857 3.2864945 0.87294525 59
0.28052816 3.2856953 0.75189245 43
0.28107718 3.2853611 0.63291705 64
0.28168035 3.2856593 0.51566488 50
0.28192511 3.2817838 0.39916322 58
0.28309533 3.2886751 0.28486562 57
0.28306556 3.2816262 0.17004701 65
0.28397861 3.2855136 0.056325953 55
0.17515196 2.0060287 -0.52894014 43
0.1727598 1.9746536 -0.44843808 36
0.1683668 1.9205805 -0.36697748 3
0.26868266 3.058759 -0.47972459 10
0.28836271 3.2762425 -0.39855474 81
0.28954056 3.2830639 -0.28499928 84
0.2903775 3.2859998 -0.17030782 84
0.29129919 3.2898812 -0.056982104 88
0.29148892 3.285497 0.87294525 60
0.29199564 3.2846961 0.75189245 39
0.29254353 3.2843597 0.63291705 58
0.29314774 3.284656 0.51566488 52
0.29382098 3.2857227 0.39977169 55
0.29457322 3.2876668 0.28486562 55
0.29451886 3.2806182 0.17004701 61
0.29601869 3.2844505 0.056325953 59
0.18250325 2.0053732 -0.52894014 40
0.17999612 1.9740072 -0.44843808 36
0.17540495 1.9199506 -0.36697748 4
0.27719072 3.0282454 -0.47503674 9
0.30036879 3.2751637 -0.39855474 81
0.30157164 3.2819805 -0.28499928 84
0.3024193 3.2849135 -0.17030782 82
0.30335525 3.2887914 -0.056982104 85
0.30397335 3.2892156 0.87423849 60
0.30448189 3.288455 0.75301629 40
0.3050327 3.2881527 0.63387018 63
0.30518463 3.2835596 0.51566488 52
0.3058618 3.2846236 0.39977169 55
0.30708387 3.2915249 0.28530052 58
0.30654094 3.2795165 0.17004701 63
0.30748177 3.2833974 0.056325953 63
0.18950219 2.0047238 -0.52894014 42
0.18688558 1.9733669 -0.44843808 37
0.18164214 1.9144403 -0.36602432 5
0.28542292 3.0026774 -0.47113016 7
0.31226996 3.2790358 -0.39916322 79
0.31349912 3.2858663 -0.28543505 78
0.3143591 3.2888086 -0.17056863 80
0.3148334 3.2877128 -0.056982104 86
0.31545296 3.2881346 0.87423849 65
0.31595886 3.2873719 0.75301629 38
0.31650865 3.2870681 0.63387018 62
0.31664455 3.2824743 0.51566488 54
0.31732538 3.2835362 0.39977169 54
0.3185716 3.2904329 0.28530052 58
0.31798673 3.2784266 0.17004701 65
0.31942457 3.2872796 0.056412343 61
0.19649884 2.00405 -0.52894014 45
0.19329652 1.9678538 -0.44731417 38
0.18832369 1.9137946 -0.36602432 5
0.29202652 2.9623449 -0.46487969 5
0.32371399 3.2779255 -0.39916322 83
0.32496703 3.2847519 -0.28543505 82
0.32583725 3.2876911 -0.17056863 84
0.32680169 3.2915685 -0.057069365 86
0.32692879 3.2870133 0.87423849 67
0.32743201 3.2862492 0.75301629 39
0.32798073 3.285943 0.63387018 61
0.32859197 3.286263 0.51644617 52
0.32878515 3.2824085 0.39977169 54
0.33005539 3.2893009 0.28530052 57
0.32992801 3.2822649 0.17030782 66
0.33089736 3.2861447 0.056412343 61
0.20300502 1.9985471 -0.5276469 43
0.20016444 1.967167 -0.44731417 38
0.19450521 1.9082426 -0.36507112 5
0.30637842 3.0006115 -0.47113016 7
0.33515412 3.2767756 -0.39916322 81
0.33643097 3.2835977 -0.28543505 80
0.33731145 3.2865338 -0.17056863 83
0.33828941 3.2904079 -0.057069365 86
0.3384006 3.2858522 0.87423849 66
0.33940113 3.2899325 0.75414026 41
0.33944881 3.2847781 0.63387018 64
0.34006116 3.2850959 0.51644617 59
0.34075275 3.2861774 0.40038019 49
0.34204978 3.293083 0.28573543 60
0.34138325 3.2810931 0.17030782 65
0.34288439 3.2899423 0.056498732 67
0.20998001 1.9978263 -0.5276469 45
0.20702991 1.9664564 -0.44731417 43
0.20116504 1.907552 -0.36507112 6
0.30232441 2.8620086 -0.4492535 5
0.34659019 3.2755859 -0.39916322 77
0.34789082 3.2824032 -0.28543505 80
0.34878153 3.2853363 -0.17056863 82
0.34977302 3.289207 -0.057069365 86
0.35037991 3.289454 0.87553179 66
0.35088307 3.2887278 0.75414026 37
0.35143432 3.2884538 0.63482338 59
0.3515262 3.2838891 0.51644617 52
0.35222161 3.2849679 0.40038019 51
0.35354272 3.2918689 0.28573543 56
0.35283431 3.2798815 0.17030782 63
0.35436636 3.2887251 0.056498732 59
0.21695243 1.997081 -0.5276469 50
0.21336582 1.9608783 -0.44619027 44
0.20782241 1.9068382 -0.36507112 7
0.28765991 2.6351032 -0.41331321 4
0.3585614 3.2792892 -0.39977169 84
0.35988873 3.2861204 -0.28587085 82
0.3602474 3.2840989 -0.17056863 82
0.36179832 3.2929349 -0.057156626 84
0.3618601 3.2882106 0.87553179 63
0.36236075 3.287483 0.75414026 39
0.36291102 3.2872071 0.63482338 66
0.36298698 3.2826419 0.51644617 53
0.36423242 3.2886508 0.40098864 57
0.3650313 3.2906146 0.28573543 62
0.36483249 3.2835925 0.17056863 63
0.36584395 3.2874682 0.056498732 63
0.22392222 1.9963117 -0.5276469 52
0.22020927 1.9601215 -0.44619027 42
0.21447726 1.9061011 -0.36507112 7
0.27418059 2.4328752 -0.3812795 3
0.37000608 3.2780178 -0.39977169 81
0.37135723 3.2848442 -0.28587085 80
0.37170881 3.2828209 -0.17056863 82
0.37329063 3.2916522 -0.057156626 86
0.37388095 3.2917266 0.87682498 66
0.37383398 3.2861981 0.75414026 40
0.3743833 3.2859204 0.63482338 59
0.37500322 3.2862616 0.51722747 46
0.37570974 3.2873592 0.40098864 57
0.37708196 3.2942693 0.28617036 61
0.37629217 3.282299 0.17056863 59
0.37731716 3.2861712 0.056498732 61
0.23088929 1.9955178 -0.5276469 46
0.22705004 1.9593409 -0.44619027 45
0.22112949 1.9053408 -0.36507112 8
0.27639911 2.3779421 -0.37268507 3
0.38144624 3.2767062 -0.39977169 80
0.3828212 3.2835279 -0.28587085 80
0.38316575 3.2815037 -0.17056863 84
0.38477835 3.290329 -0.057156626 84
0.38536894 3.2904015 0.87682498 63
0.38530266 3.2848732 0.75414026 39
0.38585103 3.2845933 0.63482338 61
0.38647211 3.2849326 0.51722747 54
0.38776323 3.2909567 0.40159714 60
0.38857877 3.292933 0.28617036 54
0.38833323 3.2859242 0.17082943 61
0.38878572 3.2848339 0.056498732 61
0.23785354 1.9946997 -0.5276469 48
0.23388803 1.9585364 -0.44619027 42
0.227779 1.9045573 -0.36507112 9
0.28352335 2.3671556 -0.37112245 3
0.39288175 3.2753546 -0.39977169 80
0.39428055 3.2821715 -0.28587085 82
0.39521441 3.2851038 -0.17082943 82
0.39626139 3.2889657 -0.057156626 84
0.39743084 3.2938313 0.87811828 62
0.39735115 3.2883451 0.7552641 43
0.39731404 3.2832263 0.63482338 62
0.39793634 3.2835634 0.51722747 54
0.39924842 3.289583 0.40159714 57
0.40007094 3.2915566 0.28617036 57
0.40040421 3.2895052 0.17109025 57
0.40024957 3.2834568 0.056498732 57
0.24481489 1.9938574 -0.5276469 50
0.24072318 1.9577081 -0.44619027 40
0.23442577 1.9037507 -0.36507112 9
0.28997126 2.3514471 -0.3687785 3
0.40492073 3.2788892 -0.40038019 78
0.40634635 3.2857184 -0.28630662 80
0.40667915 3.2837043 -0.17082943 86
0.40835494 3.2925241 -0.057243891 86
0.40892604 3.292424 0.87811828 58
0.40882719 3.286938 0.7552641 39
0.40877223 3.2818196 0.63482338 65
0.40939566 3.2821543 0.51722747 53
0.41072881 3.2881694 0.40159714 57
0.41217637 3.2950823 0.28660524 58
0.41188428 3.2880876 0.17109025 60
0.41233078 3.2870002 0.056585122 59
0.25177327 1.9929906 -0.5276469 50
0.24755538 1.9568558 -0.44619027 42
0.24106967 1.9029208 -0.36507112 10
0.29755607 2.3455215 -0.3679972 3
0.41636372 3.2774556 -0.40038019 80
0.41781315 3.2842798 -0.28630662 78
0.41876993 3.2872179 -0.17109025 83
0.41984549 3.2910783 -0.057243891 86
0.42041621 3.2909763 0.87811828 62
0.42029828 3.2854908 0.7552641 44
0.42084917 3.2852416 0.63577664 65
0.42147839 3.2856035 0.51800877 56
0.42283645 3.2916379 0.40220562 54
0.42367589 3.2936234 0.28660524 60
0.42399731 3.2915819 0.17135105 60
0.42380202 3.2855408 0.056585122 63
0.25935063 1.9968891 -0.52894014 50
0.25501293 1.9608113 -0.44731417 43
0.24771065 1.9020677 -0.36507112 11
0.30510297 2.3395712 -0.36721587 3
0.42780167 3.2759821 -0.40038019 80
0.42927492 3.2828014 -0.28630662 84
0.43024188 3.2857358 -0.17109025 83
0.43133098 3.289593 -0.057243891 86
0.43190134 3.2894888 0.87811828 57
0.4323993 3.2888343 0.75638807 39
0.43231419 3.2837527 0.63577664 66
0.43294474 3.2841122 0.51800877 54
0.43432385 3.2901418 0.40220562 55
0.43517017 3.2921247 0.28660524 61
0.43548444 3.290082 0.17135105 58
0.43592501 3.2889974 0.056671511 61
0.26666784 1.9959252 -0.52894014 43
0.26219791 1.9598634 -0.44731417 43
0.2546804 1.901147 -0.36507112 11
0.31301934 2.3335426 -0.3664346 3
0.43980587 3.2743921 -0.40038019 74
0.44196805 3.2861423 -0.28674239 82
0.44228187 3.284137 -0.17109025 79
0.44405314 3.2929442 -0.057331149 84
0.4446013 3.29267 0.87941152 61
0.44445059 3.2872274 0.75638807 40
0.4443469 3.282146 0.63577664 68
0.44564211 3.2873976 0.51879013 50
0.44637987 3.2885277 0.40220562 57
0.44790435 3.2954435 0.28704017 61
0.44821361 3.2934115 0.17161186 60
0.44797683 3.2873776 0.056671511 65
0.2736333 1.9949821 -0.52894014 43
0.26903754 1.9589362 -0.44731417 39
0.26131511 1.9002465 -0.36507112 9
0.32116303 2.3324358 -0.3664346 3
0.45191073 3.2777531 -0.40098864 78
0.45343614 3.28458 -0.28674239 77
0.45442659 3.2875192 -0.17135105 84
0.45554495 3.2913742 -0.057331149 83
0.45609215 3.2910979 0.87941152 57
0.45659202 3.2904816 0.75751191 41
0.45580098 3.2805748 0.63577664 68
0.45711458 3.2858219 0.51879013 44
0.45854098 3.2918653 0.40281412 60
0.45940486 3.2938597 0.28704017 58
0.45970708 3.2918267 0.17161186 62
0.46014151 3.2907448 0.056757901 57
0.28059542 1.9940149 -0.52894014 41
0.27587387 1.9579852 -0.44731417 38
0.26863223 1.9041827 -0.36602432 9
0.32861203 2.3264103 -0.36565328 3
0.46334949 3.2761557 -0.40098864 76
0.46489871 3.2829771 -0.28674239 80
0.46589944 3.2859128 -0.17135105 82
0.46773389 3.2947137 -0.057418413 86
0.46757749 3.2894862 0.87941152 57
0.46807522 3.2888677 0.75751191 39
0.46794191 3.2838228 0.63672978 66
0.46927899 3.2890952 0.51957142 44
0.47002894 3.2902446 0.40281412 54
0.47160503 3.2971666 0.28747508 56
0.4719027 3.295145 0.17187266 59
0.47162557 3.2891185 0.056757901 67
0.28755414 1.9930233 -0.52894014 39
0.28270686 1.9570103 -0.44731417 40
0.27527741 1.9032334 -0.36602432 8
0.33673072 2.3252492 -0.36565328 4
0.47478259 3.2745185 -0.40098864 83
0.47707114 3.2862635 -0.28717816 82
0.47736657 3.2842667 -0.17135105 80
0.47923175 3.293061 -0.057418413 83
0.4797534 3.2926133 0.88070476 55
0.47955263 3.2872138 0.75751191 44
0.47940183 3.2821693 0.63672978 70
0.48075721 3.287437 0.51957142 47
0.48151115 3.288584 0.40281412 51
0.48311141 3.2955005 0.28747508 57
0.48340204 3.2934773 0.17187266 60
0.48383066 3.2923982 0.05684429 61
0.29450932 1.9920074 -0.52894014 39
0.29024974 1.9608309 -0.44843808 38
0.28191927 1.902261 -0.36602432 8
0.34412047 2.3191745 -0.36487198 4
0.48693916 3.2777505 -0.40159714 80
0.48853946 3.2845781 -0.28717816 82
0.48956335 3.287519 -0.17161186 80
0.49146092 3.2963123 -0.057505675 90
0.49124384 3.2909184 0.88070476 55
0.4917444 3.2903385 0.75863582 39
0.49158219 3.2853305 0.63768297 71
0.49296123 3.2906229 0.52035272 44
0.49372366 3.2917907 0.40342256 52
0.49461189 3.2937937 0.28747508 56
0.49489549 3.29177 0.17187266 60
0.49532035 3.2906895 0.05684429 65
0.30146092 1.9909672 -0.52894014 37
0.29709253 1.9598058 -0.44843808 39
0.28855771 1.9012653 -0.36602432 7
0.3522138 2.3179593 -0.36487198 4
0.49837768 3.2760305 -0.40159714 80
0.50000179 3.2828526 -0.28717816 80
0.50103599 3.2857902 -0.17161186 82
0.5029642 3.2945769 -0.057505675 83
0.50345808 3.2939579 0.881998 55
0.50322682 3.2886019 0.75863582 40
0.50379038 3.2884459 0.63863617 68
0.50444466 3.2888823 0.52035272 44
0.50521117 3.2900472 0.40342256 54
0.5068633 3.2969708 0.28790998 51
0.50638288 3.2900226 0.17187266 57
0.50756538 3.2938812 0.05693068 63
0.30840886 1.9899029 -0.52894014 38
0.30393174 1.9587568 -0.44843808 37
0.2951926 1.9002464 -0.36602432 6
0.36030281 2.3167155 -0.36487198 4
0.51057363 3.2791746 -0.40220562 80
0.51222521 3.2860091 -0.28761396 80
0.51250249 3.2840211 -0.17161186 82
0.51446134 3.2928009 -0.057505675 88
0.51495302 3.2921808 0.881998 58
0.5154568 3.2916384 0.75975972 39
0.51526612 3.2866673 0.63863617 71
0.51668769 3.2919803 0.52113408 43
0.51669246 3.2882638 0.40342256 51
0.51836878 3.2951813 0.28790998 58
0.51864094 3.2931674 0.17213348 59
0.51906008 3.2920892 0.05693068 53
0.31535304 1.988814 -0.52894014 38
0.31076723 1.9576839 -0.44843808 40
0.30182388 1.8992045 -0.36602432 6
0.36838749 2.3154438 -0.36487198 4
0.522017 3.2773724 -0.40220562 81
0.52369237 3.2842011 -0.28761396 80
0.52474988 3.287143 -0.17187266 80
0.52595222 3.2909851 -0.057505675 84
0.52720487 3.2951324 0.8832913 58
0.52694368 3.2898192 0.75975972 40
0.52751267 3.289695 0.63958937 71
0.52817577 3.2901566 0.52113408 53
0.52895498 3.2913404 0.40403107 51
0.53065914 3.2982693 0.28834489 61
0.53013307 3.2913368 0.17213348 56
0.53054839 3.2902575 0.05693068 57
0.32229337 1.9877012 -0.52894014 44
0.31837955 1.9613965 -0.44956198 38
0.30845153 1.8981394 -0.36602432 6
0.37646765 2.3141437 -0.36487198 4
0.53425169 3.2804284 -0.40281412 79
0.53515321 3.2823529 -0.28761396 80
0.53622091 3.2852912 -0.17187266 84
0.53824294 3.2940631 -0.05759294 88
0.5387038 3.293272 0.8832913 56
0.53842407 3.2879598 0.75975972 40
0.53899264 3.2878337 0.63958937 68
0.53965735 3.2882929 0.52113408 54
0.54044068 3.289474 0.40403107 57
0.54216903 3.296397 0.28834489 64
0.54242986 3.2943928 0.17239428 59
0.5428434 3.2933183 0.057017069 63
0.33001944 1.991329 -0.53023344 43
0.32522416 1.9602731 -0.44956198 38
0.31587958 1.901893 -0.36697748 5
0.38454324 2.3128157 -0.36487198 5
0.5456993 3.2785437 -0.40281412 77
0.54742616 3.2853782 -0.28804973 80
0.54850698 3.2883246 -0.17213348 82
0.54973811 3.2921641 -0.05759294 88
0.55019617 3.2913716 0.8832913 57
0.55070204 3.2908657 0.76088363 38
0.55127698 3.2907732 0.64054251 70
0.55194908 3.2912595 0.52191538 53
0.55274147 3.2924614 0.40463954 60
0.55367231 3.2944841 0.28834489 53
0.55475461 3.2974036 0.17265509 66
0.55433595 3.2914033 0.057017069 61
0.33696848 1.9901649 -0.53023344 39
0.33206481 1.9591259 -0.44956198 34
0.3225165 1.9007789 -0.36697748 5
0.39261413 2.3114593 -0.36487198 5
0.55797213 3.2815115 -0.40342256 79
0.558891 3.2834473 -0.28804973 80
0.55998206 3.2863901 -0.17213348 83
0.56206715 3.2951534 -0.057680197 86
0.56249475 3.2941916 0.88458449 60
0.56218594 3.2889233 0.76088363 40
0.56276059 3.2888288 0.64054251 66
0.56343436 3.2893128 0.52191538 53
0.56423098 3.2905121 0.40463954 61
0.56601155 3.2974412 0.2887798 60
0.56626135 3.2954471 0.17265509 66
0.56666917 3.2943752 0.057103459 65
0.34473634 1.9937359 -0.53152668 33
0.33973235 1.9627554 -0.45068586 32
0.32914948 1.8996416 -0.36697748 5
0.39983624 2.3052087 -0.36409065 5
0.56942338 3.2795439 -0.40342256 77
0.57034892 3.2814765 -0.28804973 80
0.57230616 3.2893343 -0.17239428 81
0.5735659 3.2931712 -0.057680197 86
0.57399017 3.2922082 0.88458449 58
0.57450068 3.2917402 0.76200753 44
0.57508206 3.2916794 0.64149576 67
0.57576352 3.292191 0.52269667 54
0.57656938 3.293411 0.40524802 65
0.57751828 3.2954452 0.2887798 63
0.57862389 3.298368 0.17291589 63
0.57873982 3.2922761 0.057103459 65
0.35204142 1.9924588 -0.53152668 29
0.34692395 1.9614971 -0.45068586 30
0.33696547 1.9032555 -0.36793068 4
0.40828255 2.3037276 -0.36409065 4
0.58230656 3.2823215 -0.40403107 79
0.58324325 3.2842684 -0.2884855 82
0.58435833 3.2872148 -0.17239428 83
0.58650798 3.295969 -0.057767462 91
0.58605289 3.2900822 0.88458449 61
0.58656162 3.2896125 0.76200753 40
0.58714277 3.2895494 0.64149576 66
0.58782625 3.2900586 0.52269667 50
0.5895102 3.2961609 0.40585652 65
0.59047055 3.2982092 0.2892147 62
0.59070909 3.2962251 0.17291589 63
0.5902285 3.2902358 0.057103459 63
0.36070818 2.0007243 -0.53411317 21
0.35463399 1.9650687 -0.45180979 26
0.34360704 1.9020677 -0.36793068 4
0.41632158 2.3022885 -0.36409065 4
0.59376049 3.2802689 -0.40403107 83
0.59470397 3.2822125 -0.2884855 80
0.59582925 3.2851548 -0.17239428 82
0.59800947 3.2939017 -0.057767462 86
0.59839749 3.292769 0.88587779 57
0.59891289 3.2923386 0.76313144 41
0.59950119 3.292309 0.6424489 68
0.60019261 3.2928452 0.52347797 47
0.60101229 3.2940834 0.40585652 65
0.60197985 3.2961283 0.2892147 60
0.60221153 3.2941432 0.17291589 66
0.60260987 3.2930734 0.057189848 61
0.36856332 2.0042031 -0.53540641 18
0.3614912 1.9638189 -0.45180979 27
0.35113382 1.9056838 -0.36888388 4
0.42435554 2.3008213 -0.36409065 4
0.60520715 3.2781761 -0.40403107 79
0.60706246 3.2850144 -0.28892127 82
0.60820121 3.2879651 -0.17265509 83
0.61041391 3.2967095 -0.057854723 88
0.60988778 3.2906599 0.88587779 58
0.61040163 3.2902279 0.76313144 39
0.61098987 3.2901962 0.6424489 66
0.61168313 3.2907298 0.52347797 53
0.61341494 3.296844 0.40646499 70
0.61439383 3.2989039 0.28964964 61
0.61462164 3.2969298 0.17317671 68
0.61410123 3.2909496 0.057189848 61
0.37822741 2.0171459 -0.5392862 14
0.36924273 1.9673334 -0.45293367 27
0.35868999 1.9092704 -0.36983705 3
0.4342097 2.3090332 -0.36565328 4
0.61664635 3.2760437 -0.40403107 77
0.61852562 3.2828753 -0.28892127 78
0.61967468 3.2858219 -0.17265509 81
0.62191784 3.294559 -0.057854723 88
0.62226737 3.2932568 0.88717103 58
0.62278843 3.2928638 0.76425534 40
0.62338406 3.292866 0.6434021 64
0.62408566 3.293427 0.52425927 50
0.62491935 3.2946827 0.40646499 68
0.62590545 3.2967393 0.28964964 58
0.62612635 3.2947643 0.17317671 65
0.62558502 3.2887859 0.057189848 63
0.38526627 2.0158134 -0.5392862 9
0.37610775 1.9660325 -0.45293367 24
0.36535242 1.9080068 -0.36983705 4
0.45063376 2.3511558 -0.37268507 4
0.62807822 3.2738712 -0.40403107 75
0.63092053 3.285588 -0.28935707 80
0.632083 3.288542 -0.17291589 79
0.6343587 3.297277 -0.057941984 90
0.63375908 3.2910645 0.88717103 61
0.63427883 3.2906699 0.76425534 41
0.63487446 3.2906699 0.6434021 62
0.6355781 3.2912285 0.52425927 50
0.63641614 3.2924817 0.40646499 71
0.63740939 3.2945342 0.28964964 61
0.63857269 3.2974606 0.17343751 65
0.63801253 3.2914901 0.057276234 59
0.38860747 1.9954931 -0.53411317 6
0.38390037 1.9694899 -0.4540576 22
0.37201041 1.9067197 -0.36983705 3
0.48060888 2.46105 -0.39065522 5
0.64045429 3.2765293 -0.40463954 77
0.64238554 3.2833657 -0.28935707 82
0.64355826 3.2863157 -0.17291589 82
0.64586449 3.2950425 -0.057941984 91
0.64617306 3.2935717 0.88846427 61
0.64670038 3.2932167 0.76537925 43
0.64730382 3.2932498 0.6443553 60
0.64801604 3.2938356 0.52504057 41
0.64886403 3.2951093 0.40707347 70
0.64986885 3.2971761 0.29008454 70
0.65007907 3.2952116 0.17343751 67
0.64949805 3.289243 0.057276234 55
0.39181155 1.9751741 -0.52894014 3
0.39172164 1.9729165 -0.45518148 23
0.37866381 1.9054097 -0.36983705 3
0.53062576 2.6676354 -0.42425156 5
0.65188766 3.2742739 -0.40463954 77
0.65481615 3.2859881 -0.28979284 82
0.65600252 3.2889462 -0.17317671 81
0.65736234 3.292768 -0.057941984 88
0.65766585 3.291296 0.88846427 62
0.65819192 3.2909393 0.76537925 40
0.65975899 3.295783 0.64530849 59
0.65950972 3.2915535 0.52504057 56
0.66036218 3.2928243 0.40707347 70
0.66137415 3.2948878 0.29008454 62
0.66256112 3.2978177 0.17369832 67
0.66196132 3.291857 0.057362627 74
nan nan nan 0
0.39957151 1.9763128 -0.45630541 22
0.39115375 1.9329408 -0.37555617 3
0.56738472 2.8012955 -0.44612825 5
0.66429907 3.2768424 -0.40524802 77
0.66628242 3.2836823 -0.28979284 82
0.6674791 3.2866364 -0.17317671 84
0.66984808 3.2953522 -0.058029246 83
0.67011356 3.2937131 0.88975751 56
0.66967541 3.2886217 0.76537925 39
0.6712594 3.2934601 0.64530849 61
0.67198247 3.2940702 0.52582192 50
0.67284507 3.2953615 0.40768194 70
0.67386878 3.2974389 0.29051945 66
0.67406869 3.295485 0.17369832 67
0.67344803 3.2895262 0.057362627 63
0.41240102 2.0055068 -0.53799289 2
0.40744981 1.9796778 -0.45742929 21
0.39888889 1.936371 -0.37650937 3
0.5911212 2.8670135 -0.4570666 6
0.67673635 3.2793639 -0.40585652 77
0.67874807 3.2862148 -0.29022864 80
0.67995828 3.2891757 -0.17343751 81
0.68134689 3.2929938 -0.058029246 84
0.68160665 3.2913542 0.88975751 50
0.68213958 3.2910347 0.76650316 39
0.6837486 3.2959027 0.64626163 59
0.68347687 3.2917047 0.52582192 46
0.68434387 3.2929926 0.40768194 70
0.68537492 3.2950666 0.29051945 62
0.68658561 3.2980003 0.17395914 65
0.68594623 3.2920496 0.057449013 63
nan nan nan 0
0.41535655 1.9830121 -0.45855322 21
0.41470942 1.9782017 -0.38508809 3
0.61329496 2.9229324 -0.46644232 8
0.68817937 3.2769818 -0.40585652 84
0.69021499 3.2838256 -0.29022864 80
0.69143552 3.2867823 -0.17343751 84
0.69386744 3.2954876 -0.058116511 86
0.69309145 3.2889547 0.88975751 53
0.69362324 3.2886338 0.76650316 38
0.69524926 3.2934961 0.64626163 63
0.69496292 3.2892988 0.52582192 50
0.69686121 3.2954395 0.40829045 68
0.69790399 3.2975271 0.29095435 49
0.69809359 3.2955837 0.17395914 65
0.69743341 3.2896352 0.057449013 62
nan nan nan 0
0.42329144 1.9863151 -0.4596771 20
0.43799362 2.0535474 -0.40033907 3
0.62452525 2.9256039 -0.46722364 11
0.70065081 3.2794127 -0.40646499 79
0.7027151 3.286267 -0.2906644 80
0.70394933 3.2892318 -0.17369832 83
0.70536667 3.2930458 -0.058116511 86
0.70558029 3.2912381 0.89105082 59
0.70612067 3.290956 0.76762706 38
0.70777208 3.2958481 0.64721489 55
0.70747817 3.2916808 0.52660322 55
0.70940387 3.2978387 0.40889892 71
0.70941025 3.2950709 0.29095435 56
0.71064484 3.298008 0.17421994 66
0.70996612 3.2920675 0.057535406 62
nan nan nan 0
0.43125451 1.9895869 -0.46080104 20
0.48262057 2.2246881 -0.43465388 5
0.63159013 2.9089274 -0.46487969 17
0.71209383 3.276947 -0.40646499 83
0.71418196 3.2837942 -0.2906644 82
0.71542662 3.2867541 -0.17369832 84
0.71792138 3.2954481 -0.058203775 88
0.71706456 3.2887549 0.89105082 54
0.71864259 3.2932312 0.76875097 39
0.72031969 3.2981527 0.64816803 59
0.71896398 3.2891912 0.52660322 53
0.72197175 3.3001907 0.40950739 64
0.72197324 3.2974405 0.29138926 58
0.72215265 3.2955072 0.17421994 66
0.72145319 3.2895691 0.057535406 64
nan nan nan 0
0.43924552 1.9928274 -0.46192494 20
0.51258719 2.3236444 -0.45467082 18
0.63002861 2.853658 -0.45628527 9
0.724599 3.2792873 -0.40707347 81
0.72671568 3.2861445 -0.29110017 80
0.72797424 3.2891123 -0.17395914 82
0.7294203 3.292922 -0.058203775 84
0.72958541 3.290947 0.892344 49
0.73013371 3.2907023 0.76875097 36
0.73182797 3.2956181 0.64816803 56
0.73151255 3.2914827 0.52738452 40
0.73348719 3.2976503 0.40950739 66
0.73456132 3.2997622 0.29182416 58
0.73473758 3.2978401 0.17448075 66
0.73401958 3.2919102 0.057621799 60
nan nan nan 0
0.44619912 1.9912821 -0.46192494 23
0.51425081 2.2931049 -0.44895169 13
0.64431202 2.8707163 -0.45941049 10
0.73604143 3.2767382 -0.40707347 83
0.73818213 3.2835879 -0.29110017 80
0.73945087 3.286551 -0.17395914 78
0.74200851 3.2952328 -0.058291033 84
0.74106854 3.2883804 0.892344 49
0.742688 3.2928867 0.76987487 36
0.74440807 3.2978313 0.64912122 56
0.74299741 3.2889092 0.52738452 43
0.74608815 3.2999103 0.41011587 66
0.74607521 3.297178 0.29182416 46
0.74624473 3.2952552 0.17448075 66
0.7460801 3.2891979 0.057621799 62
nan nan nan 0
0.45457721 1.9943832 -0.46304882 21
0.52374357 2.2959898 -0.44990486 16
0.65812695 2.8827798 -0.46175444 11
0.74915171 3.2788565 -0.40768194 79
0.75132245 3.2857161 -0.29153597 78
0.75260562 3.2886863 -0.17421994 81
0.75408119 3.2924912 -0.058291033 84
0.75419521 3.2903502 0.8936373 55
0.75475198 3.2901425 0.76987487 38
0.75649023 3.2950807 0.64912122 55
0.75615275 3.2909768 0.52816582 53
0.75817788 3.2971537 0.41011587 63
0.7592721 3.2992754 0.29225907 53
0.7594381 3.2973638 0.17474155 66
0.75867987 3.2914448 0.057708185 62
nan nan nan 0
0.45933756 1.9832915 -0.46080104 10
0.53175491 2.2941477 -0.44990486 22
0.67041761 2.8900867 -0.46331707 12
0.76059246 3.2762215 -0.40768194 81
0.7627871 3.2830734 -0.29153597 80
0.76521158 3.2909026 -0.17448075 81
0.76670259 3.294708 -0.058378298 81
0.76677155 3.2924013 0.8949306 48
0.76733804 3.2922323 0.77099878 39
0.76910257 3.2972 0.65007442 62
0.76763582 3.2883174 0.52816582 50
0.7708115 3.29932 0.41072437 61
0.77078408 3.2966051 0.29225907 59
0.77094346 3.2946925 0.17474155 68
0.77130443 3.2936442 0.057794575 59
nan nan nan 0
0.47518453 2.0196164 -0.46979225 6
0.54088473 2.2970555 -0.45085809 16
0.68390018 2.9021497 -0.46566102 12
0.77316326 3.2783771 -0.40829045 81
0.77538663 3.285238 -0.29197174 82
0.7766943 3.2882116 -0.17448075 82
0.77819854 3.2920115 -0.058378298 86
0.77825952 3.2897048 0.8949306 57
0.77994788 3.2942748 0.77212268 38
0.78060728 3.2944953 0.65007442 54
0.780249 3.2904234 0.52894717 55
0.78232354 3.2966092 0.41072437 59
0.78343761 3.2987406 0.292694 56
0.78359395 3.2968395 0.17500237 68
0.78279668 3.2909317 0.057794575 65
0.27249944 1.1411822 -0.30391428 12
0.47430468 1.9847753 -0.46192494 2
0.54889971 2.2951534 -0.45085809 21
0.69517589 2.9045472 -0.46644232 12
0.78460222 3.2756584 -0.40829045 79
0.78684956 3.2825115 -0.29197174 76
0.78933239 3.2903357 -0.17474155 78
0.79085213 3.294136 -0.058465559 86
0.79086626 3.2916641 0.89622378 63
0.79258126 3.2962692 0.77324659 39
0.7932508 3.2965226 0.65102762 66
0.7928862 3.2924807 0.52972847 49
0.79498887 3.2986829 0.41133282 60
0.79494762 3.2959859 0.292694 54
0.79509735 3.2940841 0.17500237 66
0.79545331 3.2930388 0.057880964 63
0.27534312 1.1355302 -0.30262101 17
0.48122996 1.9831077 -0.46192494 2
0.55806625 2.2979929 -0.45181125 30
0.70531034 2.9021029 -0.46644232 12
0.79603159 3.2728996 -0.40829045 68
0.79948092 3.284585 -0.29240751 76
0.80081296 3.2875602 -0.17474155 78
0.80353004 3.2962127 -0.05855282 84
0.8034963 3.293576 0.89751709 56
0.80523813 3.2982156 0.77437049 40
0.80475295 3.2937336 0.65102762 58
0.80437428 3.2896929 0.52972847 47
0.80649859 3.2958877 0.41133282 62
0.80763268 3.2980289 0.29312888 57
0.80777937 3.296138 0.17526317 68
0.80694324 3.290242 0.057880964 59
0.2712234 1.1017333 -0.29356825 17
nan nan nan 0
0.56608427 2.296031 -0.45181125 34
0.71543628 2.8996234 -0.46644232 12
0.80745137 3.2701008 -0.40829045 40
0.81213629 3.2866096 -0.29284328 76
0.81348246 3.289592 -0.17500237 78
0.81503105 3.2933877 -0.05855282 86
0.81498814 3.290751 0.89751709 56
0.81674618 3.2953849 0.77437049 39
0.81742686 3.2956681 0.65198076 60
0.81704229 3.2916584 0.53050977 46
0.81919491 3.297869 0.41194132 60
0.81913996 3.2951899 0.29312888 58
0.82048565 3.2981441 0.17552398 68
0.81963122 3.2922566 0.057967354 59
0.27623841 1.1054658 -0.29486153 19
0.59552902 2.3814521 -0.55745685 25
0.57528704 2.2988024 -0.45276445 33
0.72555351 2.8971086 -0.46644232 12
0.81886119 3.2672625 -0.40829045 35
0.82360369 3.2837546 -0.29284328 80
0.82617587 3.291575 -0.17526317 79
0.82774007 3.2953713 -0.058640081 84
0.82764739 3.2925704 0.89881027 56
0.82943273 3.2972386 0.7754944 38
0.82892597 3.2927945 0.65198076 64
0.82852733 3.2887864 0.53050977 46
0.83191484 3.2998013 0.41254979 57
0.83185589 3.2971401 0.29356381 62
0.83199334 3.2952602 0.17552398 65
0.83234298 3.2942224 0.058053743 61
0.27890828 1.099813 -0.29356825 17
0.59185362 2.3321354 -0.5462178 4
0.58209968 2.2920229 -0.45181125 33
0.73566192 2.8945582 -0.46644232 12
0.83026105 3.2643843 -0.40829045 36
0.83628976 3.285687 -0.29327908 74
0.83766055 3.2886713 -0.17526317 84
0.83923799 3.2924616 -0.058640081 88
0.83913559 3.2896612 0.89881027 53
0.8409372 3.294323 0.7754944 39
0.8416298 3.2946367 0.65293401 60
0.84122545 3.290659 0.53129107 51
0.84342819 3.2968776 0.41254979 59
0.84336001 3.2942164 0.29356381 65
0.84473002 3.2971725 0.17578478 62
0.84383684 3.2912967 0.058053743 63
0.28154209 1.0941553 -0.29227501 17
0.62550408 2.429136 -0.56981981 6
0.58887208 2.2852242 -0.45085809 26
0.74576133 2.8919725 -0.46644232 12
0.84289086 3.2662714 -0.40889892 26
0.84899926 3.2875702 -0.29371485 80
0.85038453 3.2905619 -0.17552398 81
0.85197747 3.2943523 -0.058727346 86
0.85182375 3.291388 0.90010357 59
0.85365301 3.2960844 0.7766183 38
0.85435647 3.2964301 0.65388715 58
0.85270691 3.2877023 0.53129107 40
0.85617822 3.2987173 0.41315827 56
0.85610604 3.2960734 0.29399872 57
0.85623413 3.2942038 0.17578478 67
0.85657895 3.2931695 0.058140133 59
0.28535968 1.0931659 -0.29227501 19
0.62659127 2.3986545 -0.56307638 3
0.59312117 2.2689083 -0.44799849 4
0.75585163 2.8893516 -0.46644232 12
0.85554409 3.2681105 -0.40950739 74
0.86046988 3.2845867 -0.29371485 78
0.86313164 3.2924032 -0.17578478 82
0.86474025 3.2961938 -0.058814604 86
0.86453396 3.293066 0.90139681 49
0.86639124 3.2977967 0.77774227 43
0.86585802 3.2934277 0.65388715 67
0.86543441 3.2894819 0.53207237 56
0.86768764 3.2957084 0.41315827 67
0.86760628 3.2930651 0.29399872 59
0.86900091 3.2960234 0.1760456 62
0.86806911 3.2901595 0.058140133 72
0.29040998 1.096832 -0.29356825 20
0.62872118 2.3729055 -0.55745685 2
0.59348983 2.238358 -0.44227937 2
0.76719934 2.8914695 -0.46722364 12
0.86949384 3.2746973 -0.41072437 79
0.873209 3.286377 -0.29415065 78
0.87590212 3.2941961 -0.1760456 81
0.87624079 3.2931552 -0.058814604 84
0.87726641 3.2946954 0.90269005 56
0.87789738 3.2947521 0.77774227 39
0.87861353 3.2951281 0.65484035 64
0.87691152 3.2864411 0.53207237 41
0.88046682 3.2974544 0.41376674 57
0.88038188 3.2948289 0.29443362 58
0.88179058 3.2977934 0.17630641 58
0.88084072 3.2919383 0.058226522 67
0.29423687 1.0958116 -0.29356825 20
0.63700032 2.3706963 -0.55745685 2
0.61659354 2.2931521 -0.45371762 3
0.77857095 2.8935425 -0.46800491 12
0.88349998 3.2812266 -0.41194132 79
0.88597125 3.2881184 -0.29458642 78
0.88739574 3.2911184 -0.1760456 80
0.88903314 3.2949033 -0.058901869 84
0.8887617 3.2916131 0.90269005 52
0.89066368 3.2963707 0.77886611 38
0.8913914 3.2967789 0.65579355 64
0.88966787 3.2881272 0.53285366 43
0.89197165 3.2943609 0.41376674 59
0.89318013 3.2965431 0.29486853 52
0.89329666 3.2946951 0.17630641 61
0.89363545 3.2936685 0.058312912 61
0.29932895 1.0994381 -0.29486153 19
nan nan nan 0
0.63621378 2.3336048 -0.46229634 3
0.7899664 2.8955717 -0.46878624 12
0.89625531 3.2829101 -0.41254979 79
0.89875621 3.2898109 -0.29502219 80
0.90019512 3.2928171 -0.17630641 80
0.9018482 3.2966018 -0.05898913 83
0.90152144 3.293149 0.90398329 59
0.90345198 3.297941 0.77999008 40
0.90289384 3.2936475 0.65579355 61
0.90244669 3.2897644 0.53363502 53
0.90477949 3.2960131 0.41437525 56
0.90600121 3.2982087 0.29530343 56
0.90611535 3.2963717 0.17656721 59
0.90512711 3.2905293 0.058312912 57
0.30316493 1.0983865 -0.29486153 19
nan nan nan 0
nan nan nan 0
0.80006903 2.8927963 -0.46878624 12
0.90903318 3.2845449 -0.41315827 81
0.91023439 3.2866535 -0.29502219 78
0.91168368 3.289655 -0.17630641 79
0.91468602 3.2982512 -0.059076395 84
0.91430271 3.294636 0.9052766 54
0.91495848 3.2947671 0.77999008 39
0.91569948 3.2952046 0.65674675 64
0.91524768 3.2913518 0.53441632 49
0.91627914 3.2928348 0.41437525 53
0.91884464 3.2998242 0.29573834 54
0.91761643 3.2931888 0.17656721 58
0.91852492 3.2920048 0.058399301 61
0.30849075 1.1019191 -0.29615477 19
0.67666042 2.4153857 -0.56981981 11
0.81453282 2.9055777 -0.57858527 28
0.81066626 2.8898447 -0.46878624 11
0.92106545 3.2811911 -0.41315827 77
0.9236213 3.2880902 -0.29545796 80
0.92508596 3.2910984 -0.17656721 80
0.9267686 3.2948766 -0.059076395 86
0.92637199 3.2912631 0.9052766 51
0.92834908 3.2960811 0.78111392 37
0.92777091 3.2918265 0.65674675 63
0.92730492 3.2879753 0.53441632 47
0.92968976 3.2942302 0.41498372 54
0.9322868 3.3012283 0.29617327 58
0.93103808 3.2946084 0.17682803 61
0.93137097 3.2935891 0.058485691 61
0.31233528 1.1008356 -0.29615477 22
0.68774897 2.4223828 -0.57206756 8
0.81662196 2.8743882 -0.57286614 19
0.82074875 2.8869972 -0.46878624 12
0.93387127 3.2827294 -0.41376674 77
0.93645716 3.2896373 -0.29589376 78
0.93793631 3.2926509 -0.17682803 82
0.93963456 3.2964292 -0.059163652 84
0.93917978 3.2926536 0.90656978 45
0.93984896 3.2928205 0.78111392 38
0.94060379 3.2932873 0.65769988 64
0.94013369 3.2894673 0.53519762 47
0.9425478 3.2957368 0.41559219 54
0.94517487 3.3027422 0.29660815 54
0.9439075 3.2961388 0.17708884 64
0.94286203 3.290318 0.058485691 61
0.31751058 1.1043805 -0.29744801 22
nan nan nan 0
0.82393473 2.8620868 -0.57095981 15
0.83082128 2.8841147 -0.46878624 13
0.94532442 3.2794492 -0.41376674 79
0.94793433 3.2863483 -0.29589376 80
0.95080888 3.2941544 -0.17708884 81
0.9525227 3.2979319 -0.059250917 86
0.95200861 3.2939951 0.90786308 58
0.95269078 3.2941999 0.78223783 36
0.95345825 3.294699 0.65865314 56
0.95298392 3.2909088 0.53597891 40
0.95404631 3.2924263 0.41559219 54
0.95808506 3.3042071 0.29704309 62
0.95679873 3.2976189 0.17734964 59
0.95573556 3.2918077 0.05857208 58
0.32136363 1.1032654 -0.29744801 24
0.8996011 3.0863917 -0.73278606 15
0.8352946 2.8639052 -0.571913 17
0.84088367 2.881197 -0.46878624 13
0.95815742 3.2808933 -0.41437525 77
0.96079719 3.2878001 -0.29632953 78
0.96370316 3.295608 -0.17734964 82
0.96543282 3.2993851 -0.059338178 86
0.96485817 3.2952871 0.90915632 58
0.96555376 3.2955298 0.78336173 37
0.96495312 3.2913506 0.65865314 60
0.96585572 3.2923009 0.53676027 46
0.9669311 3.293838 0.41620067 53
0.96961313 3.3008425 0.29704309 53
0.96971184 3.2990496 0.17761046 65
0.96863097 3.2932477 0.058658469 64
0.32657966 1.1067692 -0.29874125 23
0.91174877 3.0879049 -0.7339099 15
0.84667712 2.865679 -0.57286614 19
0.8495357 2.8735085 -0.46800491 12
0.97101182 3.2822876 -0.41498372 72
0.97368169 3.2892025 -0.2967653 80
0.9766193 3.2970114 -0.17761046 83
0.97694397 3.295995 -0.059338178 84
0.97772837 3.2965298 0.91044956 56
0.97843766 3.2968104 0.78448564 38
0.97783357 3.2926679 0.65960634 55
0.97874898 3.2936437 0.53754157 42
0.97983724 3.2951999 0.41680917 49
0.98254973 3.302212 0.29747799 61
0.98264664 3.3004303 0.17787126 65
0.9801206 3.2898467 0.058658469 62
0.33044103 1.1056224 -0.29874125 26
0.92112613 3.0800362 -0.73278606 9
0.85667497 2.8627062 -0.57286614 21
0.85956091 2.8705256 -0.46800491 12
0.98388773 3.2836325 -0.41559219 77
0.98658782 3.290555 -0.29720107 80
0.98812199 3.2935824 -0.17761046 82
0.98988062 3.2973528 -0.05942544 84
0.990619 3.2977223 0.91174281 56
0.98993969 3.2933745 0.78448564 38
0.99073482 3.2939343 0.66055948 58
0.99166322 3.2949362 0.53832287 42
0.99276483 3.2965112 0.41741762 56
0.99550784 3.3035314 0.2979129 61
0.99560273 3.3017607 0.17813207 65
0.99304247 3.2911913 0.058744859 55
0.33569759 1.1090851 -0.30003452 24
nan nan nan 0
0.8680861 2.8643956 -0.57381934 17
0.86957556 2.8675075 -0.46800491 12
0.99678481 3.2849269 -0.41620067 75
0.99951512 3.2918572 -0.29763687 80
1.0010643 3.2948906 -0.17787126 82
1.0028386 3.2986608 -0.059512701 84
1.0021242 3.2942443 0.91174281 54
1.0028484 3.2945597 0.78560954 39
1.0036569 3.2951515 0.66151267 56
1.0031586 3.2914546 0.53832287 45
1.0057135 3.2977731 0.41802612 53
1.0070332 3.3000367 0.2979129 57
1.007122 3.298265 0.17813207 64
1.0059856 3.2924857 0.058831248 55
0.34098229 1.1125243 -0.30132776 27
0.84975278 2.7707658 -0.65973222 2
0.87807941 2.8613482 -0.57381934 16
0.8781302 2.8597341 -0.46722364 12
1.0097028 3.2861714 -0.41680917 79
1.0109997 3.2883482 -0.29763687 80
1.0140277 3.2961485 -0.17813207 79
1.0158178 3.2999182 -0.059599966 84
1.0150388 3.295342 0.91303611 49
1.0157776 3.2956953 0.78673345 38
1.0165995 3.2963183 0.66246587 62
1.0160981 3.2926517 0.53910416 49
1.0186828 3.2989841 0.41863459 56
1.0200168 3.30126 0.2983478 55
1.0201038 3.2995 0.17839287 61
1.0189499 3.2937303 0.058917638 51
0.34629506 1.1159401 -0.30262101 26
0.84208214 2.7119479 -0.64624536 2
0.88951838 2.8629529 -0.57477254 24
0.88810712 2.8566511 -0.46722364 12
1.0211676 3.2826271 -0.41680917 75
1.0239524 3.2895551 -0.29807264 78
1.0270121 3.2973561 -0.17839287 81
1.0288178 3.3011246 -0.059687223 86
1.0279735 3.2963898 0.91432929 54
1.0272754 3.2921295 0.78673345 36
1.0280997 3.2927496 0.66246587 62
1.0290581 3.2937989 0.53988552 51
1.0301924 3.2954082 0.41863459 49
1.0330212 3.3024335 0.29878271 59
1.0331067 3.3006842 0.17865369 61
1.0319351 3.2949243 0.059004027 47
0.35018831 1.1147246 -0.30262101 22
0.97280627 3.0947618 -0.73952943 14
0.89950657 2.8598301 -0.57477254 25
0.89659065 2.8488226 -0.46644232 12
1.0341105 3.2837758 -0.41741762 77
1.0369259 3.2907114 -0.29850841 78
1.0385157 3.293751 -0.17839287 79
1.0403346 3.2975132 -0.059687223 86
1.0409278 3.2973871 0.91562259 54
1.0402284 3.2931695 0.78785735 37
1.0410664 3.2938209 0.66341907 62
1.0420387 3.2948956 0.54066682 49
1.0431865 3.2965236 0.41924307 57
1.0460463 3.303556 0.29921761 55
1.0461299 3.3018179 0.17891449 63
1.0455164 3.2958848 0.059090417 59
0.35573605 1.118036 -0.30391428 21
0.96936244 3.0447514 -0.72829044 40
0.91147214 2.861191 -0.57572573 26
0.90552634 2.8408124 -0.46566102 12
1.0461391 3.2799635 -0.41741762 77
1.0504943 3.2916336 -0.29894418 80
1.0520999 3.2946792 -0.17865369 82
1.0539353 3.29844 -0.059774488 84
1.0530063 3.2935498 0.91562259 53
1.0537759 3.2939749 0.78898126 37
1.0531318 3.2899833 0.66341907 59
1.0556144 3.2957571 0.54144812 42
1.0567765 3.2974043 0.41985154 56
1.0581473 3.2996995 0.29921761 56
1.0582247 3.2979615 0.17891449 63
1.058543 3.2969751 0.059176806 55
0.36111704 1.121385 -0.30520752 24
0.98895001 3.0691724 -0.73503381 47
0.91994786 2.8533206 -0.57477254 22
0.91392076 2.8329341 -0.46487969 12
1.0591066 3.2810152 -0.41802612 78
1.0619779 3.2879467 -0.29894418 80
1.0651295 3.295738 -0.17891449 78
1.0669807 3.2994978 -0.059861749 83
1.0659834 3.2944491 0.91691583 49
1.0667683 3.2949116 0.79010516 38
1.0661223 3.2909565 0.66437227 59
1.0671122 3.2920525 0.54144812 42
1.0698112 3.2984159 0.42046005 62
1.0711966 3.3007238 0.29965255 51
1.0712724 3.2989967 0.1791753 61
1.0715901 3.2980149 0.059263196 59
0.36502922 1.1201174 -0.30520752 55
1.0026782 3.0749655 -0.73728162 54
0.9299022 2.8500919 -0.57477254 17
0.92227131 2.8250318 -0.46409839 12
1.0720941 3.2820156 -0.41863459 80
1.074996 3.2889545 -0.29937997 81
1.0766274 3.2920001 -0.17891449 80
1.0800465 3.3005047 -0.059949014 83
1.0789796 3.2952983 0.91820908 56
1.0797801 3.2957976 0.79122907 37
1.0791324 3.2918792 0.66532546 59
1.0801364 3.293 0.54222941 43
1.082866 3.299377 0.42106855 60
1.0842657 3.3016968 0.30008742 55
1.0843402 3.2999809 0.1794361 60
1.0846572 3.2990034 0.059349585 57
0.37044948 1.1234233 -0.30650076 71
1.0134056 3.0714467 -0.73728162 53
0.96138746 2.9120808 -0.58811718 12
0.93057793 2.8171058 -0.46331707 12
1.0851014 3.2829652 -0.41924307 79
1.088034 3.2899108 -0.29981574 77
1.0896807 3.2929621 -0.1791753 80
1.0931321 3.3014603 -0.060036272 83
1.0919946 3.2960968 0.91950232 54
1.0912781 3.2920086 0.79122907 36
1.0921618 3.2927506 0.6662786 58
1.0931802 3.2938967 0.54301071 39
1.0943763 3.295577 0.42106855 58
1.0957842 3.2978919 0.30008742 49
1.097428 3.3009138 0.17969692 58
1.0977441 3.2999408 0.059435975 57
0.37436873 1.1221235 -0.30650076 72
1.0256635 3.0725119 -0.73840553 55
0.99487144 2.9785392 -0.60241497 12
0.93884033 2.8091564 -0.46253577 13
1.0981284 3.2838643 -0.41985154 77
1.1010919 3.2908168 -0.30025154 79
1.1027539 3.2938731 -0.1794361 80
1.1062378 3.3023651 -0.060123537 86
1.1050285 3.2968442 0.92079562 47
1.1043116 3.292798 0.79235297 36
1.1052105 3.2935717 0.6672318 60
1.1062433 3.2947423 0.54379207 39
1.1074538 3.2964411 0.42167699 53
1.1088765 3.2987683 0.30052236 56
1.1105355 3.3017955 0.17995772 58
1.1092564 3.2960887 0.059435975 59
0.37828338 1.1208099 -0.30650076 58
1.0379411 3.073529 -0.73952943 52
1.00212 2.9657483 -0.60050863 12
0.94705868 2.8011837 -0.46175444 12
1.1095845 3.2800109 -0.41985154 77
1.1125722 3.286953 -0.30025154 79
1.1142448 3.2900038 -0.1794361 84
1.1177585 3.2984834 -0.060123537 84
1.1180807 3.2975411 0.9220888 50
1.1173643 3.2935374 0.79347688 37
1.1182781 3.2943413 0.668185 59
1.1193255 3.295537 0.54457337 38
1.1205506 3.2972543 0.4222855 46
1.1219883 3.2995934 0.30095726 54
1.1236625 3.3026261 0.18021853 55
1.1223662 3.2969291 0.059522364 63
0.38219342 1.1194826 -0.30650076 41
1.0502384 3.0744977 -0.74065334 36
1.0140538 2.966877 -0.60146183 13
0.95523286 2.7931881 -0.46097314 12
1.1226338 3.2808137 -0.42046005 77
1.1256524 3.2877614 -0.30068731 81
1.1273404 3.290818 -0.17969692 81
1.1308864 3.2992902 -0.060210798 83
1.1311513 3.2981868 0.9233821 53
1.1304353 3.2942252 0.79460078 37
1.1313648 3.2950604 0.66913819 55
1.1324269 3.2962804 0.54535466 39
1.1336668 3.2980161 0.42289397 53
1.1351191 3.3003674 0.30139217 59
1.1368086 3.303405 0.18047935 56
1.1354954 3.297718 0.059608754 61
0.38452241 1.1135763 -0.30520752 30
1.059373 3.0662081 -0.73952943 24
1.0228002 2.9586799 -0.60050863 12
0.96497709 2.7898366 -0.46097314 12
1.1357024 3.2815647 -0.42106855 77
1.138752 3.2885191 -0.30112308 80
1.1404555 3.2915809 -0.17995772 82
1.1440337 3.3000464 -0.060298059 83
1.14424 3.2987812 0.92467535 57
1.1435249 3.2948618 0.79572469 39
1.1444699 3.2957275 0.67009133 58
1.145547 3.2969723 0.54613596 40
1.1468018 3.2987266 0.42350245 55
1.1482692 3.3010893 0.3018271 54
1.1499741 3.3041325 0.18074015 54
1.1486439 3.2984555 0.059695143 57
0.38840714 1.1122272 -0.30520752 26
1.0668554 3.0532928 -0.73728162 14
1.031502 2.9504588 -0.59955543 12
0.97307885 2.7817893 -0.46019182 12
1.1487895 3.2822645 -0.42167699 75
1.1518704 3.2892253 -0.30155888 76
1.1535895 3.2922921 -0.18021853 81
1.1555461 3.2960327 -0.060298059 83
1.1573468 3.2993248 0.92596859 53
1.1566327 3.2954471 0.7968486 49
1.1575935 3.2963436 0.67104459 55
1.1586858 3.2976129 0.54691732 40
1.1599555 3.2993851 0.42411092 53
1.1614379 3.30176 0.30226198 51
1.1615007 3.3000984 0.18074015 51
1.1618112 3.2991414 0.059781536 57
0.39067891 1.1063104 -0.30391428 35
nan nan nan 0
1.0417947 2.94684 -0.59955543 13
0.98278314 2.7783759 -0.46019182 12
1.1618958 3.282913 -0.4222855 81
1.1650076 3.2898798 -0.30199465 78
1.1667422 3.2929518 -0.18047935 80
1.1687148 3.2966912 -0.060385324 84
1.1704712 3.2998166 0.92726189 51
1.1697584 3.2959814 0.7979725 41
1.1707352 3.2969081 0.67199773 58
1.1718429 3.298202 0.54769862 45
1.1731278 3.2999921 0.42471942 51
1.1746254 3.3023787 0.30269691 55
1.1746873 3.3007278 0.18100096 58
1.1749972 3.2997754 0.059867922 62
0.39453828 1.1049399 -0.30391428 37
1.1028975 3.0870624 -0.74739677 4
1.0504225 2.9385636 -0.59860224 14
0.99081236 2.7702782 -0.45941049 12
1.1750202 3.2835102 -0.42289397 79
1.1781634 3.2904825 -0.30243042 80
1.1799136 3.2935598 -0.18074015 80
1.1819021 3.2972975 -0.060472585 86
1.1836131 3.300257 0.92855507 50
1.182902 3.2964635 0.79909641 40
1.1838951 3.297421 0.67295092 60
1.1850183 3.2987392 0.54847991 40
1.1863184 3.3005474 0.42532787 60
1.1861458 3.2982581 0.30269691 57
1.1878923 3.3013058 0.18126176 57
1.188202 3.3003578 0.059954315 49
0.39675277 1.0990131 -0.30262101 38
0.42016041 1.1632169 -0.27648062 14
1.0606737 2.9348791 -0.59860224 15
0.99711764 2.757514 -0.45784789 13
1.1881632 3.2840552 -0.42350245 77
1.1913375 3.2910333 -0.30286619 80
1.1931036 3.2941158 -0.18100096 82
1.1951079 3.297852 -0.06055985 86
1.1967723 3.3006463 0.92984837 49
1.196063 3.2968943 0.80022031 40
1.1970727 3.2978823 0.67390412 62
1.1965259 3.2945826 0.54847991 39
1.1978322 3.2963862 0.42532787 54
1.1993536 3.298779 0.30313182 54
1.1994088 3.2971389 0.18126176 52
1.1997151 3.29619 0.059954315 58
0.39893079 1.0930845 -0.30132776 38
0.42087597 1.1525903 -0.2742328 17
1.0709118 2.9311588 -0.59860224 16
1.0050416 2.7493787 -0.4570666 14
1.1996195 3.2798877 -0.42350245 77
1.2045298 3.2915325 -0.30330199 78
1.2063117 3.2946198 -0.18126176 82
1.2083318 3.2983544 -0.060647108 86
1.2099485 3.3009832 0.93114161 50
1.2092415 3.2972734 0.80134422 38
1.210268 3.2982914 0.67485732 51
1.209721 3.2950218 0.54926121 38
1.2110426 3.2968433 0.42593637 49
1.2125794 3.2992475 0.30356672 55
1.212634 3.2976186 0.18152258 48
1.2129399 3.2966738 0.060040701 55
0.40274394 1.0916853 -0.30132776 38
0.41477406 1.1236904 -0.26748937 17
1.0709342 2.8997767 -0.59288311 16
1.0112091 2.7365887 -0.45550397 14
1.212782 3.2803352 -0.42411092 77
1.2160121 3.2873077 -0.30330199 80
1.2195379 3.2950716 -0.18152258 81
1.2215739 3.2988045 -0.060734373 86
1.2214638 3.2967396 0.93114161 53
1.2224373 3.2976007 0.80246812 38
1.2234806 3.2986484 0.67581046 44
1.2229335 3.295409 0.55004251 39
1.2242708 3.2972481 0.42654485 46
1.225823 3.2996643 0.30400163 50
1.2258772 3.2980461 0.18178338 54
1.2261826 3.2971056 0.060127094 62
0.4048647 1.0857474 -0.30003452 38
0.40847576 1.0948476 -0.26074594 23
1.0690342 2.8638322 -0.58621085 20
1.0172995 2.7237895 -0.45394135 17
1.2259624 3.2807307 -0.42471942 74
1.229224 3.2877088 -0.30373776 78
1.2327818 3.2954712 -0.18178338 80
1.234834 3.2992024 -0.060821634 84
1.234658 3.2969792 0.93243486 52
1.2356502 3.2978756 0.80359203 38
1.2367107 3.2989535 0.67676371 55
1.2361635 3.2957439 0.55082381 38
1.2375166 3.2976017 0.42715335 50
1.2390846 3.3000283 0.30443653 58
1.239138 3.2984209 0.18204419 52
1.2394429 3.2974846 0.06021348 53
0.40865219 1.0843273 -0.30003452 39
0.41401398 1.0979738 -0.26186985 21
1.0668964 2.8279366 -0.57953846 28
1.0233132 2.7109811 -0.45237872 14
1.2391601 3.2810738 -0.42532787 74
1.2424533 3.2880573 -0.30417356 74
1.2460434 3.2958183 -0.18204419 80
1.2481115 3.2995479 -0.060908895 86
1.2478687 3.2971663 0.9337281 41
1.2488797 3.298099 0.80471593 36
1.2499576 3.2992065 0.67771685 55
1.2494109 3.2960272 0.55160517 39
1.2507799 3.2979019 0.42776179 45
1.2523633 3.3003399 0.30487144 51
1.2506441 3.2940755 0.18204419 52
1.2527211 3.2978117 0.060299873 53
0.41071561 1.0783808 -0.29874125 36
0.41437438 1.0874165 -0.25962204 23
1.0785098 2.8287814 -0.58049166 52
1.0292497 2.6981637 -0.45081612 17
1.2523754 3.2813652 -0.42593637 75
1.2557 3.2883532 -0.30460933 76
1.2593225 3.296113 -0.18230499 81
1.2614065 3.2998405 -0.060996156 88
1.2610955 3.2973013 0.9350214 46
1.2638669 3.3028195 0.80696374 37
1.2632213 3.2994068 0.67867005 53
1.262675 3.2962573 0.55238646 42
1.2640601 3.2981498 0.4283703 58
1.2656596 3.3005989 0.30530638 54
1.2639234 3.2943518 0.18230499 52
1.2660165 3.2980857 0.060386259 58
0.41447735 1.0769405 -0.29874125 37
0.41641688 1.0814168 -0.25849813 27
1.090142 2.8295796 -0.58144486 57
1.0386617 2.6945548 -0.45081612 12
1.2656076 3.2816038 -0.42654485 75
1.2689641 3.2885973 -0.3050451 80
1.2708204 3.2916975 -0.18230499 79
1.2747189 3.3000808 -0.061083421 82
1.2743388 3.2973843 0.93631458 51
1.2771454 3.3029323 0.80808765 36
1.2765015 3.2995551 0.67962325 53
1.2759563 3.2964354 0.55316776 40
1.2773573 3.2983451 0.42897877 58
1.2789727 3.3008056 0.30574125 56
1.27722 3.2945752 0.18256581 52
1.2780962 3.2934237 0.060386259 58
