# .PCD v0.7 - Point Cloud Data file format
VERSION 0.7
FIELDS x y z intensity
SIZE 4 4 4 4
TYPE F F F F
COUNT 1 1 1 1
WIDTH 1375
HEIGHT 1
VIEWPOINT 0 0 0 1 0 0 0
POINTS 1375
DATA ascii
-0.7355054 1.0235641 -0.23734389 35
-0.73972481 1.0298152 -0.1945463 37
-0.74306822 1.034851 -0.15151165 35
-0.73390305 1.0224634 -0.10676579 33
-0.76457888 1.0655931 -0.066506118 36
-0.73906797 1.0304182 -0.02146646 36
-2.0626628 2.876852 0.93760788 27
-1.923879 2.6842756 0.75301629 15
-1.923265 2.6844077 0.63387018 21
-1.9115149 2.6689913 0.51332092 22
-1.9203269 2.6822841 0.39977169 19
-1.9355193 2.7045019 0.28704017 15
-0.74275362 1.0382327 0.064680457 32
-0.73472261 1.0273857 0.021165429 36
-0.76022261 1.0650063 -0.34012532 37
-0.75799233 1.0622737 -0.29221529 38
-0.73192805 1.0261253 -0.23734389 36
-0.73612559 1.0323911 -0.1945463 38
-0.73945141 1.0374385 -0.15151165 42
-0.72743911 1.0209624 -0.10633001 35
-0.75795794 1.0641886 -0.06624531 35
-0.73256707 1.0289193 -0.021379197 36
-2.0750132 2.9155145 0.94795388 29
-1.9144976 2.6909747 0.75301629 15
-1.9138827 2.6911049 0.63387018 19
-1.9050481 2.6796725 0.51410228 20
-1.9138273 2.6930168 0.40038019 20
-1.9289515 2.715302 0.28747508 14
-0.73623395 1.0367481 0.06441965 33
-0.72823811 1.0258677 0.021079039 36
-0.75650048 1.0676535 -0.34012532 36
-0.75146365 1.0609375 -0.29109138 35
-0.72550547 1.0246681 -0.23639071 34
-0.73251736 1.0349543 -0.1945463 34
-0.73582554 1.0400132 -0.15151165 42
-0.72387081 1.0234954 -0.10633001 34
-0.75423861 1.0668279 -0.06624531 34
-0.72897106 1.0314701 -0.021379197 36
-2.1261339 3.0095243 0.97640544 29
-1.9050925 2.6976411 0.75301629 16
-1.9044774 2.6977692 0.63387018 20
-1.8985302 2.690341 0.51488352 19
-1.9072758 2.7037358 0.40098864 19
-1.9252028 2.7301602 0.28834489 13
-0.73261052 1.0393116 0.06441965 33
-0.72447318 1.0285299 0.021079039 37
-0.74980438 1.0664681 -0.33883208 36
-0.74757004 1.0636847 -0.29109138 35
-0.72174501 1.0273204 -0.23639071 35
-0.72871912 1.0376321 -0.1945463 33
-0.73200876 1.0427033 -0.15151165 36
-0.71725345 1.0220644 -0.10589422 35
-0.75032336 1.0695851 -0.06624531 36
-0.72231525 1.0300418 -0.021291936 35
-2.1234062 3.0291612 0.98028523 24
-1.8979883 2.7085955 0.75414026 15
-1.8973929 2.7087514 0.63482338 20
-1.8886569 2.6972816 0.51488352 18
-1.9030451 2.7188396 0.40220562 20
-1.9208944 2.7453606 0.2892147 13
-0.72593457 1.0378981 0.064158842 32
-0.71801382 1.0269552 0.020992648 34
-0.74607712 1.0690788 -0.33883208 37
-0.74106503 1.0622917 -0.28996748 38
-0.71534699 1.0258074 -0.23543751 35
-0.72509271 1.0401696 -0.1945463 34
-0.72836459 1.0452521 -0.15151165 32
-0.7136814 1.0245619 -0.10589422 35
-0.74373204 1.0681001 -0.065984502 35
-0.71871531 1.032557 -0.021291936 36
-2.1541977 3.0960238 0.99968398 29
-1.888522 2.7152042 0.75414026 16
-1.887926 2.7153583 0.63482338 22
-1.8820487 2.7079132 0.51566488 17
-1.8963747 2.729542 0.40281412 22
-1.9169823 2.7602317 0.29008454 13
-0.72230715 1.0404258 0.064158842 33
-0.71442473 1.0294553 0.020992648 35
-0.74234086 1.0716766 -0.33883208 36
-0.73735249 1.0648721 -0.28996748 36
-0.70896846 1.0242624 -0.23448433 35
-0.71864742 1.038633 -0.19376498 34
-0.72471154 1.0477881 -0.15151165 31
-0.707268 1.0229498 -0.10545845 35
-0.73999906 1.0706896 -0.065984502 37
-0.71226496 1.0309463 -0.021204671 36
-2.1433775 3.1035247 0.99968398 28
-1.8790326 2.7217798 0.75414026 16
-1.8784361 2.7219319 0.63482338 21
-1.8753891 2.7185316 0.51644617 17
-1.8924702 2.7443161 0.40403107 21
-1.9158168 2.7792094 0.29138926 14
-0.71583778 1.0388292 0.063898034 33
-0.707991 1.0278257 0.020906258 35
-0.7358591 1.0702814 -0.33753884 36
-0.73363084 1.0674396 -0.28996748 35
-0.70538872 1.0267308 -0.23448433 37
-0.7150175 1.0411353 -0.19376498 33
-0.71824086 1.0462201 -0.15090318 33
-0.70369297 1.0254124 -0.10545845 35
-0.73625714 1.073266 -0.065984502 36
-0.70866191 1.0334263 -0.021204671 37
-2.1270695 3.1030202 0.99709749 27
-1.8695204 2.7283223 0.75414026 17
-1.8716972 2.7325218 0.63577664 21
-1.8686783 2.729136 0.51722747 17
-1.8884852 2.7590961 0.40524802 22
-1.9117292 2.7941017 0.29225907 14
-0.7122072 1.0413215 0.063898034 31
-0.70439893 1.0302908 0.020906258 35
-0.73211861 1.0728434 -0.33753884 36
-0.7299003 1.0699939 -0.28996748 36
-0.69903523 1.0251316 -0.23353115 36
-0.71137893 1.0436249 -0.19376498 32
-0.71458447 1.0487207 -0.15090318 34
-0.7001093 1.0278625 -0.10545845 34
-0.72969615 1.0717022 -0.065723695 36
-0.70505029 1.0358938 -0.021204671 37
-2.1080742 3.0984459 0.99321771 24
-1.8599854 2.7348316 0.75414026 17
-1.8621476 2.7390385 0.63577664 18
-1.8646923 2.7438114 0.51879013 16
-1.8844203 2.7738817 0.40646499 20
-1.9103593 2.8131201 0.29356381 13
-0.70856798 1.0438013 0.063898034 32
-0.69799107 1.0286067 0.020819869 36
-0.72836924 1.0753926 -0.33753884 34
-0.72616094 1.0725352 -0.28996748 34
-0.69545263 1.0275655 -0.23353115 35
-0.70773172 1.0461017 -0.19376498 33
-0.71091938 1.0512087 -0.15090318 32
-0.69651705 1.0303 -0.10545845 34
-0.7231549 1.0701058 -0.06546288 35
-0.70143002 1.0383484 -0.021204671 37
-2.09184 3.0977802 0.99063122 27
-1.8531537 2.7453456 0.7552641 16
-1.8553206 2.7495906 0.63672978 20
-1.8606265 2.758492 0.52035272 16
-1.8802751 2.7886724 0.40768194 18
-1.9088796 2.8321626 0.29486853 14
-0.7021302 1.0421274 0.063637227 35
-0.69439638 1.0310369 0.020819869 37
-0.72461092 1.0779284 -0.33753884 31
-0.72513002 1.0791072 -0.29109138 32
-0.69459844 1.0340612 -0.23448433 28
-0.70132273 1.0444657 -0.19298367 31
-0.70447987 1.0495633 -0.15029469 31
-0.69014114 1.0285889 -0.10502267 34
-0.71941513 1.0726235 -0.06546288 35
-0.69780135 1.0407907 -0.021204671 37
-2.0756359 3.097039 0.98804474 27
-1.8435593 2.7517974 0.7552641 15
-1.8484427 2.7601285 0.63768297 16
-1.8592284 2.7772822 0.52269667 15
-1.8788098 2.8075924 0.40950739 18
-1.9072907 2.8512292 0.29617327 13
-0.69848824 1.044572 0.063637227 34
-0.69357121 1.0376107 0.020906258 38
-0.72352445 1.084469 -0.33883208 29
-0.72135878 1.0816319 -0.29109138 25
-0.69370723 1.0405635 -0.23543751 27
-0.69767255 1.0469073 -0.19298367 27
-0.70081186 1.052016 -0.15029469 28
-0.6865465 1.0309917 -0.10502267 31
-0.7128998 1.0709717 -0.065202072 30
-0.69693345 1.0473821 -0.021291936 28
-2.059463 3.0962224 0.9854582 27
-1.8366401 2.7622731 0.75638807 15
-1.8415134 2.7706516 0.63863617 16
-1.8549885 2.7919819 0.52425927 13
-1.8744892 2.822402 0.41072437 16
-1.9055912 2.8703187 0.29747799 13
-0.69483769 1.0470039 0.063637227 33
-0.68976361 1.0401456 0.020906258 31
-0.71954483 1.0871136 -0.33883208 21
-0.72007787 1.0883317 -0.29221529 21
-0.69259638 1.0471931 -0.23639071 22
-0.69383073 1.0494574 -0.19298367 26
-0.69695139 1.0545776 -0.15029469 24
-0.68550879 1.037657 -0.10545845 25
-0.70896971 1.0735774 -0.065202072 28
-0.69308996 1.0499294 -0.021291936 31
-2.0454409 3.0997188 0.98416495 28
-1.8291861 2.7730529 0.75751191 14
-1.8367501 2.7855778 0.64054251 14
-1.8556143 2.8152559 0.52738452 13
-1.8723235 2.8416855 0.41254979 17
-1.9032776 2.8897636 0.29878271 13
-0.69374132 1.0537138 0.063898034 28
-0.68887699 1.0467232 0.020992648 34
-0.72104901 1.0976923 -0.34141859 19
-0.72162288 1.0989836 -0.2944631 19
-0.69163007 1.0537075 -0.23734389 17
-0.69287252 1.0560021 -0.19376498 17
-0.69326597 1.057004 -0.15029469 22
-0.68461347 1.044209 -0.10589422 24
-0.70795494 1.0802219 -0.06546288 21
-0.69216043 1.0565243 -0.021379197 20
-2.0293162 3.0987585 0.98157841 28
-1.8221638 2.7834978 0.75863582 14
-1.8350781 2.8042936 0.6434021 14
-1.8538861 2.8341146 0.52972847 13
-1.867825 2.8565114 0.41376674 17
-1.9013547 2.9088976 0.30008742 14
-0.69005889 1.056129 0.063898034 26
-0.68795282 1.0533072 0.021079039 21
-0.7198506 1.1042486 -0.34271184 16
-0.72310203 1.1096598 -0.29671091 17
-0.69330579 1.0643407 -0.23925027 17
-0.69726658 1.07083 -0.19610892 17
-0.69227934 1.0635767 -0.15090318 17
-0.68368083 1.0507675 -0.10633001 17
-0.70690238 1.0868722 -0.065723695 19
-0.69391817 1.0673164 -0.021553721 19
-2.0158553 3.1017737 0.98028523 29
-1.8177447 2.798012 0.76088363 13
-1.833298 2.8230314 0.64626163 14
-1.854738 2.8571377 0.53285366 13
-1.865947 2.8755033 0.41559219 21
-1.8993212 2.9280536 0.30139217 15
-0.68908471 1.0627209 0.064158842 19
-0.68971014 1.0640923 0.021251818 17
-0.72123855 1.1148651 -0.34529832 14
-0.7245155 1.1203592 -0.29895869 14
-0.69491547 1.0749985 -0.24115664 14
-0.69888502 1.0815531 -0.19767153 15
-0.69125533 1.0701555 -0.15151165 15
-0.68541259 1.0615166 -0.10720157 16
-0.70851976 1.0977236 -0.06624531 16
-0.69289863 1.0739329 -0.021640982 15
-1.9997802 3.1006739 0.97769868 29
-1.8106068 2.8084352 0.76200753 13
-1.8314093 2.8417907 0.64912122 15
-1.8554516 2.8802011 0.53597891 12
-1.8639588 2.8945165 0.41741762 17
-1.8971771 2.9472303 0.30269691 12
-0.68807286 1.0693188 0.06441965 16
-0.68850923 1.0708182 0.021338208 16
-0.7249732 1.1296955 -0.34917811 13
-0.7282964 1.1353097 -0.30233043 12
-0.6989193 1.0899335 -0.2440162 13
-0.70557678 1.1007383 -0.20079677 16
-0.6926834 1.0810392 -0.15272862 13
-0.68689042 1.0724103 -0.10807312 13
-0.70987636 1.1087232 -0.066766925 13
-0.69704258 1.0890973 -0.02190277 14
-1.9857992 3.1039138 0.97640544 30
-1.8055509 2.8232613 0.76425534 13
-1.8289124 2.8608906 0.65198076 14
-1.8528607 2.8994668 0.53832287 13
-1.864024 2.9180584 0.41985154 15
-1.8944044 2.9667587 0.30400163 13
-0.68952203 1.0802513 0.064941265 15
-0.69014519 1.0816438 0.021510987 13
-0.72880864 1.1444411 -0.35305786 12
-0.73217791 1.1501749 -0.30570215 15
-0.70038062 1.1006485 -0.24592258 12
-0.70968193 1.1156955 -0.20314071 15
-0.69423139 1.0918266 -0.15394558 10
-0.69115841 1.0874127 -0.10938046 18
-0.71403497 1.1238379 -0.067549348 17
-0.70127726 1.104184 -0.022164555 12
-1.9723637 3.1067493 0.9751122 30
-1.8009062 2.8377738 0.76650316 13
-1.8268026 2.8796914 0.65484035 12
-1.8533075 2.9225996 0.54144812 14
-1.8617979 2.9371221 0.42167699 14
-1.8920349 2.985976 0.30530638 12
-0.69376248 1.0953064 0.065723695 13
-0.69171399 1.092494 0.021683764 12
-0.73512983 1.1633098 -0.35823086 17
-0.73596442 1.1650808 -0.30907387 16
-0.70439607 1.1155372 -0.24878214 11
-0.71369117 1.1306947 -0.20548463 15
-0.70100898 1.1110319 -0.15637949 20
-0.6953299 1.1024576 -0.11068779 13
-0.71809661 1.1389951 -0.068331771 13
-0.70541489 1.1193132 -0.022426341 17
-1.9615071 3.1136153 0.9751122 31
-1.7987781 2.8564115 0.76987487 13
-1.8271987 2.9026656 0.65865314 11
-1.8509849 2.9415908 0.54379207 13
-1.8621037 2.9604068 0.42411092 14
-1.8895545 3.0052123 0.30661109 13
-0.69790614 1.1104039 0.066506118 12
-0.69321531 1.103368 0.021856543 12
-0.73876226 1.1781447 -0.36211061 13
-0.73965573 1.1800271 -0.31244558 15
-0.70831609 1.1304671 -0.25164169 15
-0.71498275 1.1415498 -0.20704725 14
-0.7050271 1.1260914 -0.15820493 13
-0.69940484 1.117545 -0.11199513 13
-0.72470909 1.1584269 -0.069375001 13
-0.70945555 1.1344849 -0.022688126 16
-1.9531869 3.1245384 0.97640544 22
-1.7965417 2.8750677 0.77324659 9
-1.8274567 2.925678 0.66246587 11
-1.8485523 2.9606013 0.54613596 14
-1.8622693 2.9837291 0.42654485 17
-1.8895992 3.0286937 0.30835071 13
-0.70195258 1.1255436 0.06728854 17
-0.69464916 1.1142658 0.022029322 12
-0.74485147 1.1971196 -0.36728364 13
-0.74325156 1.1950132 -0.3158173 16
-0.71473193 1.1496061 -0.25545445 15
-0.71881413 1.1566222 -0.20939118 15
-0.70894861 1.1411923 -0.16003038 13
-0.700755 1.1284423 -0.11286668 13
-0.7285614 1.1736766 -0.070157431 13
-0.71339875 1.149698 -0.022949912 17
-1.9422683 3.1313374 0.97640544 52
-1.794197 2.8937435 0.7766183 9
-1.8275757 2.9487269 0.6662786 11
-1.8460094 2.9796305 0.54847991 14
-1.8622947 3.0070884 0.42897877 16
-1.8868814 3.0479772 0.30965546 13
-0.70590198 1.1407249 0.068070963 16
-0.6960153 1.1251869 0.022202101 12
-0.74827993 1.2120415 -0.3711634 13
-0.74675167 1.2100385 -0.31918901 15
-0.71844566 1.1646262 -0.25831404 15
-0.71995676 1.1675317 -0.21095382 14
-0.71277326 1.1563342 -0.16185582 13
-0.70465046 1.1436032 -0.11417402 14
-0.73231584 1.1889671 -0.070939861 13
-0.71724421 1.1649525 -0.023211699 16
-1.9338576 3.1422114 0.97769868 57
-1.7942965 2.9165874 0.78111392 11
-1.8275564 2.9718125 0.67009133 12
-1.8459425 3.0028851 0.55160517 13
-1.8621798 3.030484 0.43141267 15
-1.8840514 3.0672779 0.31096017 13
-0.70975375 1.1559473 0.068853386 16
-0.69992858 1.1403918 0.022461269 11
-0.75161314 1.2270019 -0.37504312 12
-0.74761158 1.2209477 -0.32143679 14
-0.72206318 1.1796861 -0.26117361 14
-0.72360921 1.1826756 -0.21329775 14
-0.71650082 1.1715167 -0.16368127 13
-0.70585042 1.1545554 -0.11504558 13
-0.73336852 1.2000371 -0.071461476 13
-0.72099191 1.1802478 -0.023473486 16
-1.9203601 3.1448205 0.97640544 39
-1.7942582 2.939467 0.78560954 10
-1.8273979 2.9949336 0.67390412 11
-1.843164 3.0219586 0.55394906 12
-1.8593404 3.0496783 0.43323815 15
-1.8811098 3.0865958 0.31226492 13
-0.71350771 1.1712104 0.069635808 16
-0.70114398 1.1513678 0.022634048 11
-0.75485098 1.242 -0.37892288 12
-0.75599355 1.2443691 -0.32705632 14
-0.71794087 1.1821994 -0.26117361 14
-0.72460198 1.1936375 -0.21486036 13
-0.71755624 1.1824961 -0.16489823 12
-0.70956582 1.1697885 -0.11635291 13
-0.7395305 1.2196683 -0.072504707 13
-0.72723258 1.1998583 -0.023822535 16
-1.9043657 3.1432431 0.9738189 40
-1.7940822 2.9623818 0.79010516 10
-1.8296417 3.0222881 0.67867005 11
-1.8428314 3.045275 0.55707431 12
-1.8589584 3.0731354 0.43567204 15
-1.878056 3.1059308 0.31356964 14
-0.7171638 1.1865138 0.070418239 16
-0.70229125 1.162366 0.022806827 11
-0.75549912 1.2528995 -0.38150942 11
-0.75667548 1.2553458 -0.32930413 13
nan nan nan 0
-0.72297895 1.2003899 -0.21564168 13
-0.72110343 1.1977488 -0.16672367 12
-0.70804656 1.176526 -0.11678869 12
-0.73526859 1.2222424 -0.072504707 12
-0.72561616 1.2066739 -0.023909796 15
-1.8908938 3.1457322 0.97252572 46
-1.7937677 2.9853308 0.79460078 10
-1.8291899 3.0454872 0.68248284 11
-1.8423587 3.0686255 0.56019956 13
-1.8558813 3.0923715 0.4374975 19
-1.8723277 3.1210101 0.31443948 15
-0.7181536 1.1975743 0.070939861 12
-0.71108121 1.1862499 0.023238776 10
nan nan nan 0
-0.75729007 1.2663424 -0.33155197 14
nan nan nan 0
nan nan nan 0
-0.72200787 1.2087798 -0.16794063 11
nan nan nan 0
nan nan nan 0
nan nan nan 0
-1.8774277 3.1481647 0.97123241 44
-1.7933148 3.0083137 0.79909641 9
-1.828598 3.0687196 0.68629557 11
-1.8392178 3.0877664 0.56254351 15
-1.8526924 3.1116238 0.43932295 21
-1.8690646 3.1403677 0.31574419 15
-0.7190749 1.2086563 0.071461476 11
-0.72226804 1.2145057 0.023757113 15
nan nan nan 0
nan nan nan 0
nan nan nan 0
-0.72695899 1.226776 -0.21954823 7
-0.72263122 1.2199579 -0.16915759 11
-0.71483606 1.2072786 -0.11940337 10
-1.5428845 2.6067977 -0.15622416 7
-0.71950841 1.2161379 -0.023997057 9
-1.8609594 3.1467106 0.96864593 44
-1.7921941 3.0316424 0.80359203 9
-1.8273265 3.0923035 0.6901083 12
-1.8354232 3.1072433 0.56488746 14
-1.8488451 3.1312137 0.4411484 20
-1.8626057 3.1557763 0.316614 15
-0.71971458 1.2198845 0.071983092 12
-0.71781182 1.2171448 0.023757113 10
nan nan nan 0
nan nan nan 0
-1.2485605 2.123023 -0.47087502 18
nan nan nan 0
-0.71585405 1.2181944 -0.16854911 7
nan nan nan 0
-1.5464166 2.6336968 -0.15752821 14
nan nan nan 0
-1.8475199 3.1490214 0.96735269 24
-1.7939243 3.058893 0.80921155 10
-1.8264506 3.1156008 0.69392109 12
-1.8345532 3.1306746 0.56801265 16
-1.8429208 3.1462131 0.44236535 22
-1.8566123 3.1708555 0.31748381 16
nan nan nan 0
nan nan nan 0
-1.271051 2.1768873 -0.66473162 12
nan nan nan 0
-1.2436154 2.1316075 -0.47182819 11
nan nan nan 0
nan nan nan 0
-1.5189118 2.6066115 -0.26059568 11
-1.7357552 2.979933 -0.17813207 16
nan nan nan 0
-1.8413755 3.1637998 0.96993917 29
-1.7930357 3.0819812 0.81370717 9
-1.8229663 3.1346865 0.69678068 13
-1.8285779 3.1455989 0.56957531 16
-1.8369139 3.1612086 0.4435823 20
-1.8480343 3.1816242 0.31791875 18
nan nan nan 0
nan nan nan 0
-1.261024 2.1771317 -0.66343844 12
-1.2568417 2.1707845 -0.56981981 14
-1.238626 2.1401842 -0.47278142 12
-1.240826 2.1448486 -0.38596734 10
nan nan nan 0
-1.5098039 2.6118977 -0.26059568 12
nan nan nan 0
-1.3093243 2.2669022 -0.045027204 8
-1.8448101 3.1953049 0.97769868 21
-1.8114902 3.1388578 0.82719404 9
-1.8218237 3.1580367 0.70059341 14
-1.8225206 3.1605189 0.57113791 17
-1.8283465 3.1719007 0.44419077 23
-1.839404 3.1923714 0.31835362 18
-1.4669811 2.5470419 0.15152963 11
nan nan nan 0
-1.2510104 2.1773322 -0.66214514 13
-1.2492566 2.1751585 -0.56981981 15
-1.2287039 2.1402378 -0.47182819 12
-1.2308733 2.1448836 -0.38518602 11
-1.4019002 2.443898 -0.34074908 10
-1.5031551 2.6214731 -0.26103145 13
-1.6404194 2.8620167 -0.17030782 3
-1.3014033 2.2714589 -0.045027204 7
-1.8432465 3.2184896 0.98287171 27
-1.8247281 3.1874444 0.83843309 13
-1.8205404 3.1814172 0.70440614 14
-1.8163815 3.1754351 0.57270056 20
-1.8221902 3.1868804 0.44540775 24
-1.8307209 3.2030973 0.31878856 19
-1.4580814 2.5521472 0.15152963 10
-1.7196978 3.0112865 0.059263196 7
-1.2434025 2.1816857 -0.66214514 13
-1.2320096 2.1625731 -0.56532419 12
-1.2187967 2.1402488 -0.47087502 12
-1.2209358 2.1448755 -0.38440475 11
-1.3958153 2.45309 -0.34135756 10
-1.4915328 2.6223743 -0.26059568 8
-1.5094938 2.6550314 -0.15752821 11
-1.3008767 2.289027 -0.045288995 9
-1.8463147 3.2501016 0.99063122 48
-1.8376483 3.236161 0.84967214 31
-1.8215388 3.209096 0.70917213 17
-1.807723 3.1860511 0.5734818 23
-1.813503 3.1975384 0.44601622 25
-1.8195289 3.2094681 0.31878856 20
-1.4516256 2.5615652 0.15179043 11
-1.7830968 3.1477664 0.06185488 10
-1.2334025 2.1818082 -0.66085184 13
-1.231644 2.1795855 -0.5686959 12
-1.2089045 2.1402164 -0.46992183 13
-1.2110131 2.1448233 -0.38362342 11
-1.3848045 2.4536254 -0.34074908 10
-1.4848173 2.6319029 -0.26103145 11
-1.5002168 2.6602843 -0.15752821 16
-1.2879689 2.2848442 -0.045114469 8
-1.8325872 3.2523184 0.98933792 59
-1.8287317 3.2468007 0.85079604 33
-1.8151418 3.2239885 0.71107846 17
-1.7965907 3.192342 0.5734818 23
-1.8023305 3.2038493 0.44601622 27
-1.8083147 3.2157998 0.31878856 21
-1.4402287 2.562264 0.15152963 12
-1.4513016 2.583019 0.050537858 5
-1.223417 2.1818876 -0.65955865 14
-1.2168821 2.1711214 -0.56532419 13
-1.1990273 2.1401412 -0.46896866 13
-1.2011058 2.1447289 -0.38284212 10
-1.3762312 2.4584444 -0.34074908 10
-1.4756211 2.6370699 -0.26103145 11
-1.4884839 2.6611466 -0.15726739 10
-1.2580283 2.2500541 -0.044329111 9
-1.8188673 3.2544796 0.98804474 39
-1.8126348 3.2446578 0.84854823 24
-1.803877 3.230305 0.71107846 19
-1.7878435 3.2029061 0.57426316 23
-1.7935542 3.2144549 0.4466247 27
-1.7970784 3.2220924 0.31878856 23
-1.4312758 2.5672758 0.15152963 13
-1.3712723 2.4616675 0.048032563 7
-1.2130649 2.1821353 -0.65826535 14
-1.2089164 2.1755669 -0.56532419 12
-1.188792 2.1402304 -0.46801546 13
-1.1908398 2.1447992 -0.3820608 9
nan nan nan 0
-1.465946 2.6424608 -0.26103145 11
-1.4714559 2.6534846 -0.15648498 16
-1.2352308 2.2284155 -0.04380554 13
-1.802245 3.2526748 0.9854582 38
-1.7960093 3.2427557 0.84630042 25
-1.7920252 3.2368951 0.71107846 21
-1.7760922 3.2094374 0.57426316 22
-1.7817607 3.2210071 0.4466247 28
-1.7852567 3.2286575 0.31878856 23
-1.4194413 2.5681343 0.15126881 16
-1.2925613 2.3395402 0.045527268 14
-1.2031085 2.182127 -0.65697211 14
-1.1989634 2.1755066 -0.56420028 13
-1.1789455 2.1400681 -0.46706229 13
-1.1809635 2.1446168 -0.3812795 9
-1.1504008 2.089978 -0.28781131 8
-1.4567131 2.6475616 -0.26103145 11
-1.4501534 2.636729 -0.15518093 34
-1.2178112 2.2151902 -0.043456491 16
-1.7862281 3.2504804 0.98287171 36
-1.7799877 3.2404647 0.84405261 32
-1.7807155 3.2431304 0.71107846 21
-1.7648784 3.2156177 0.57426316 24
-1.7705064 3.2272069 0.4466247 27
-1.7739757 3.2348697 0.31878856 25
-1.4104682 2.5730734 0.15126881 13
-1.3252258 2.4185698 0.046995889 78
-1.1954842 2.1863134 -0.65697211 13
-1.1890253 2.1754031 -0.56307638 13
-1.1691147 2.139863 -0.46610907 13
-1.1711031 2.1443918 -0.38049817 10
-1.1383425 2.085269 -0.28659433 8
-1.4498483 2.6570029 -0.26146722 11
-1.4505044 2.6593089 -0.15622416 12
-1.2028918 2.2062597 -0.043194704 14
-1.7702483 3.2482138 0.98028523 35
-1.766335 3.2423799 0.84292871 36
-1.7670366 3.2450159 0.71012527 20
-1.7536429 3.2217584 0.57426316 23
-1.7568586 3.2290082 0.44601622 25
-1.7626731 3.2410421 0.31878856 23
-1.4014779 2.5779812 0.15126881 14
-1.2523273 2.3045809 0.044663373 11
-1.1855428 2.1862273 -0.65567887 14
-1.1791028 2.1752574 -0.56195247 13
-1.1593 2.1396155 -0.4651559 14
-1.1589067 2.1397815 -0.37893555 10
-1.1239684 2.0761371 -0.28476888 8
-1.4405648 2.6620476 -0.26146722 11
-1.4435885 2.6687479 -0.15648498 10
-1.1999388 2.2192404 -0.043369226 15
-1.7566028 3.2501245 0.97899193 35
-1.7526904 3.2442396 0.8418048 31
-1.7556984 3.2511642 0.71012527 21
-1.7400404 3.2235143 0.5734818 22
-1.7455765 3.2351208 0.44601622 25
-1.7513491 3.2471755 0.31878856 20
-1.3924706 2.5828576 0.15126881 12
-1.2087008 2.2429247 0.043367527 14
-1.1756166 2.1860986 -0.65438563 14
-1.1691958 2.1750686 -0.56082857 13
-1.1518242 2.1436491 -0.4651559 14
-1.1490937 2.1394627 -0.37815422 10
-1.1214094 2.0887928 -0.28598583 8
-1.4336191 2.6714489 -0.26190299 13
-1.4271832 2.6605701 -0.15570255 6
-1.1898226 2.2190094 -0.043281965 12
-1.7406837 3.2477224 0.97640544 36
-1.7390544 3.2460432 0.8406809 32
-1.7420222 3.2529459 0.70917213 19
-1.7287776 3.2295687 0.5734818 20
-1.7319318 3.2368183 0.44540775 25
-1.7376543 3.2488768 0.31835362 20
-1.3858004 2.5921059 0.15152963 10
-1.191439 2.2294936 0.043021973 9
-1.1657059 2.1859272 -0.65309232 14
-1.1593044 2.1748371 -0.55970466 13
-1.1420263 2.1433246 -0.4642027 14
-1.1392969 2.139102 -0.37737292 11
-1.1164435 2.0970752 -0.28659433 13
-1.4266254 2.6808341 -0.26233879 27
-1.4343019 2.6963942 -0.15752821 21
nan nan nan 0
-1.7270697 3.2495136 0.9751122 35
-1.7254273 3.2477911 0.83955699 32
-1.7283545 3.2546723 0.70821887 17
-1.7151785 3.2312217 0.57270056 17
-1.7182966 3.2384605 0.44479927 24
-1.7263032 3.2549226 0.31835362 18
-1.3767437 2.5969274 0.15152963 9
-1.1785794 2.2250099 0.042849194 7
-1.1554292 2.185915 -0.65179914 14
-1.1490494 2.1747639 -0.55858076 13
-1.1318707 2.1431558 -0.46324947 15
-1.1291435 2.138896 -0.37659159 11
-1.111066 2.1055422 -0.28720281 17
-1.4121422 2.6772332 -0.26146722 17
-1.4360533 2.7237172 -0.15883225 7
-1.1739132 2.2274668 -0.043281965 7
-1.7128969 3.2515488 0.9738189 35
-1.711242 3.2497826 0.83843309 32
-1.7118417 3.2522981 0.70631254 16
-1.7010244 3.2331154 0.5719192 20
-1.7041056 3.240344 0.44419077 24
-1.712044 3.256819 0.31791875 19
-1.3695388 2.6063764 0.15179043 8
nan nan nan 0
-1.1455498 2.1856568 -0.65050584 15
-1.1391902 2.1744461 -0.55745685 13
-1.1221058 2.1427457 -0.46229634 14
-1.1216705 2.1428244 -0.37659159 11
-1.1060102 2.1138051 -0.28781131 15
-1.4074054 2.690974 -0.26233879 17
-1.6856295 3.2243121 -0.18804279 28
nan nan nan 0
-1.6993005 3.253227 0.97252572 36
-1.6953777 3.2470984 0.83618528 34
-1.6982076 3.2539022 0.70535934 15
-1.6874442 3.2346549 0.57113791 18
-1.6904896 3.2418723 0.4435823 26
-1.7006651 3.2627749 0.31791875 18
-1.3604326 2.6111407 0.15179043 22
-1.6895086 3.2441332 0.062546 33
-1.133459 2.1810708 -0.64791936 15
-1.129347 2.1740856 -0.55633295 13
-1.1123576 2.1422935 -0.46134311 14
-1.1119089 2.1423435 -0.3758103 12
-1.0986249 2.1176527 -0.28781131 8
nan nan nan 0
-1.6835557 3.2479081 -0.18908602 24
nan nan nan 0
-1.6857128 3.2548501 0.97123241 35
-1.6817931 3.2486701 0.83506137 35
-1.6823275 3.251092 0.70345294 16
-1.673874 3.2361391 0.57035661 18
-1.6768838 3.2433453 0.44297382 26
-1.6869787 3.2642665 0.31748381 19
-1.3513097 2.6158738 0.15179043 15
-1.6781741 3.250011 0.062546 33
-1.1236266 2.1807208 -0.64662611 15
-1.1195204 2.1736834 -0.55520904 14
-1.1026263 2.1417994 -0.46038994 14
-1.1021641 2.1418204 -0.37502897 12
-1.0957664 2.1303015 -0.28902826 8
-1.6687251 3.2455945 -0.31593958 33
-1.6539491 3.2182372 -0.18699956 11
-1.6713587 3.253509 -0.063177705 33
-1.672135 3.2564182 0.96993917 36
-1.668218 3.250186 0.83393741 34
-1.6687284 3.2525775 0.70249981 15
-1.660314 3.2375679 0.56957531 18
-1.6632882 3.2447627 0.44236535 23
-1.6733027 3.2657022 0.31704891 17
-1.6403493 3.2027664 0.18595631 19
-1.6645412 3.251399 0.06245961 34
-1.1138104 2.1803286 -0.64533287 15
-1.1097105 2.1732388 -0.55408514 14
-1.0929117 2.1412632 -0.45943674 14
-1.0901923 2.1368563 -0.37346637 11
-1.0883236 2.1341136 -0.28902826 4
-1.6551236 3.2469618 -0.31550378 31
nan nan nan 0
-1.653185 3.245959 -0.062915921 32
-1.6563753 3.2536266 0.96735269 37
-1.6546532 3.2516475 0.83281356 27
-1.6529139 3.2496328 0.70059341 15
-1.6445261 3.2345393 0.56801265 18
-1.6497035 3.2461243 0.44175684 23
-1.6596371 3.2670825 0.316614 16
-1.6449841 3.2396376 0.18778197 27
-1.6509188 3.2527316 0.062373217 33
-1.1061928 2.1842031 -0.64533287 15
-1.0999172 2.1727524 -0.55296123 14
-1.0832146 2.1406858 -0.45848358 15
-1.0804977 2.1362419 -0.37268507 11
-1.1346077 2.2441947 -0.30363178 8
-1.6392864 3.2438288 -0.31463224 28
nan nan nan 0
-1.6418445 3.2517097 -0.062915921 32
-1.6428318 3.2550769 0.96605939 38
-1.6389039 3.2487035 0.83056575 26
-1.6393507 3.2509999 0.69964021 16
-1.6310027 3.2358501 0.56723136 19
-1.6361293 3.2474308 0.4411484 22
-1.6459821 3.2684071 0.3161791 16
-1.6314206 3.2409 0.18752117 24
-1.6344934 3.2498281 0.062200438 33
-1.0960135 2.1839259 -0.64403963 15
-1.0919462 2.1767693 -0.55296123 15
-1.0731612 2.1402535 -0.45753035 15
-1.0704479 2.1357727 -0.37190375 11
-1.148604 2.2927096 -0.30971658 9
-1.6251559 3.2453613 -0.31419647 28
nan nan nan 0
-1.6254417 3.248764 -0.062741399 31
-1.6287299 3.2567568 0.9647662 38
-1.6248072 3.2503307 0.82944185 20
-1.6230361 3.2482054 0.69773382 15
-1.6169251 3.2373879 0.56645006 19
-1.6197823 3.2445254 0.43993142 22
-1.6317677 3.2699609 0.31574419 16
-1.6195313 3.2468579 0.18752117 25
-1.6209089 3.2510402 0.062114052 33
-1.0862322 2.1834145 -0.64274633 15
-1.0821719 2.1762049 -0.55183733 14
-1.0634992 2.1395917 -0.45657721 15
-1.0629861 2.1394963 -0.37190375 10
-1.1339718 2.2833705 -0.30789116 13
-1.6093882 3.2420917 -0.3133249 28
-1.6127274 3.2502425 -0.18752117 14
-1.6118702 3.2499394 -0.062654138 31
-1.6152065 3.2580948 0.9634729 36
-1.609125 3.2472517 0.82719404 14
-1.6095095 3.2494528 0.69678068 16
-1.6034232 3.2385864 0.5656687 18
-1.6062458 3.2457118 0.43932295 20
-1.6159266 3.2667077 0.31487435 17
-1.6059744 3.2480152 0.18726036 24
-1.6051207 3.2477148 0.061941274 32
-1.076468 2.1828611 -0.64145315 15
-1.0724149 2.1755996 -0.55071342 15
-1.0560241 2.1432908 -0.45657721 15
-1.0533295 2.1387632 -0.37112245 10
-1.1216106 2.2784097 -0.30667418 9
-1.5936631 3.2387512 -0.31245336 28
-1.6013721 3.2558522 -0.18752117 16
-1.5961046 3.2465732 -0.062479611 32
-1.5995635 3.2550433 0.96088642 38
-1.5934843 3.2441027 0.82494622 13
-1.5959938 3.2506454 0.69582742 17
-1.589933 3.2397304 0.56488746 17
-1.5927207 3.2468433 0.43871447 21
-1.6023208 3.2678561 0.31443948 17
-1.590232 3.2446339 0.18673874 24
-1.5893754 3.2443187 0.061768491 32
-1.0667206 2.182266 -0.64015985 16
-1.0626752 2.1749518 -0.54958951 14
-1.0463823 2.1425536 -0.45562398 16
-1.0436908 2.137989 -0.37034112 10
-1.1114742 2.2778506 -0.30606568 9
-1.577981 3.2353401 -0.31158176 28
-1.5899974 3.2614224 -0.18752117 17
-1.5825722 3.2476306 -0.062392347 31
-1.5860765 3.2562649 0.95959312 37
-1.5800178 3.245265 0.82382232 12
-1.5803416 3.2473698 0.69392109 17
-1.5764544 3.2408195 0.56410611 19
-1.5770372 3.2434568 0.4374975 21
-1.5865495 3.2644691 0.31356964 18
-1.5745327 3.2411826 0.18621713 24
-1.5736735 3.2408526 0.061595712 31
-1.0590966 2.1859763 -0.64015985 15
-1.0529532 2.1742632 -0.54846561 14
-1.0367584 2.1417751 -0.45467082 16
-1.0340707 2.1371739 -0.36955982 9
-1.0948733 2.2638457 -0.30363178 14
-1.562342 3.2318599 -0.31071022 30
-1.572086 3.2534649 -0.18673874 22
-1.5668777 3.2441316 -0.062217824 32
-1.5726006 3.2574322 0.95829988 38
-1.5644453 3.2419851 0.82157451 13
-1.5668641 3.2484455 0.69296789 16
-1.5629874 3.241854 0.56332481 20
-1.5635512 3.2444711 0.43688902 19
-1.5729831 3.2654998 0.31313473 18
-1.5610433 3.2421603 0.18595631 23
-1.5580153 3.2373168 0.061422933 30
-1.049369 2.1853061 -0.6388666 16
-1.043249 2.1735332 -0.5473417 15
-1.0271527 2.1409557 -0.45371762 15
-1.0244687 2.1363173 -0.3687785 8
-1.0848191 2.2631783 -0.30302331 3
-1.5445948 3.2238178 -0.30940288 27
-1.5585628 3.2544291 -0.18647793 23
-1.5533856 3.2450724 -0.062130563 30
-1.5570512 3.2541881 0.95571339 38
-1.551017 3.2430303 0.8204506 13
-1.5533984 3.2494664 0.69201469 16
-1.5474032 3.238378 0.56176221 18
-1.5479386 3.2409523 0.43567204 21
-1.5572829 3.2619808 0.31226492 18
-1.5454156 3.2385767 0.1854347 21
-1.5424011 3.233711 0.061250154 31
-1.0396589 2.1845944 -0.63757336 15
-1.0335625 2.1727619 -0.5462178 14
-1.0196732 2.1445282 -0.45371762 15
-1.0148855 2.1354198 -0.3679972 7
-1.1322801 2.3835025 -0.31884378 9
-1.5269226 3.2156913 -0.30809554 10
-1.5450523 3.2553389 -0.18621713 22
-1.5377631 3.2414412 -0.061956041 31
-1.543613 3.2552392 0.95442015 37
-1.535514 3.23962 0.81820279 15
-1.5399448 3.2504339 0.69106156 16
-1.533976 3.2392964 0.56098086 18
-1.5323696 3.2373648 0.4344551 20
-1.5437567 3.2628944 0.31183001 19
-1.5319669 3.2394378 0.18517388 21
-1.5289675 3.2345557 0.061163764 31
-1.0299667 2.1838419 -0.63628012 16
-1.0238945 2.1719496 -0.54509389 15
-1.0100889 2.1436343 -0.45276445 15
-1.0053209 2.1344812 -0.36721587 6
-1.1133839 2.3649895 -0.31580141 6
-1.5072051 3.2029741 -0.30635244 3
-1.5315545 3.2561939 -0.18595631 22
-1.524312 3.2422652 -0.061868776 30
-1.5301864 3.2562363 0.95312691 39
-1.5221249 3.2405503 0.81707889 14
-1.5265032 3.2513463 0.6901083 17
-1.5205615 3.2401607 0.56019956 18
-1.5189523 3.2382009 0.43384659 22
-1.5281285 3.259243 0.31096017 17
-1.516412 3.2357228 0.18465227 22
-1.5134261 3.2308185 0.060990985 30
-1.0202924 2.1830482 -0.63498682 13
-1.0142448 2.1710963 -0.54396999 15
-1.0005234 2.1426997 -0.45181125 16
-0.99786401 2.1379776 -0.36721587 6
-1.0505693 2.2519269 -0.29998088 22
-1.4812802 3.1766157 -0.30330199 2
-1.5180694 3.2569945 -0.18569551 21
-1.5087628 3.2385032 -0.061694253 30
-1.5147332 3.2528012 0.95054042 38
-1.5087481 3.2414267 0.81595498 15
-1.5130742 3.2522049 0.68915516 16
-1.5050769 3.2364924 0.5586369 18
-1.5034558 3.2344825 0.43262964 20
-1.5146438 3.2600403 0.31052527 17
-1.5030048 3.2364674 0.18439145 24
-1.5000342 3.2315471 0.060904596 31
-1.0106361 2.1822138 -0.63369364 13
-1.0046133 2.170202 -0.54284608 15
-0.99097687 2.1417246 -0.45085809 17
-0.9966144 2.1548951 -0.36955982 5
-1.02396 2.2150371 -0.29450455 15
-1.4827183 3.2088969 -0.30591667 9
-1.5045975 3.2577405 -0.1854347 20
-1.4953537 3.2392111 -0.061606992 30
-1.5013459 3.2536831 0.94924712 38
-1.4974241 3.2466736 0.81595498 15
-1.4976029 3.2485516 0.68724877 16
-1.4917035 3.2372413 0.55785561 17
-1.49008 3.2352033 0.43202117 21
-1.5011717 3.2607825 0.31009036 18
-1.489611 3.2371583 0.18413065 23
-1.4840037 3.2279391 0.060731817 32
-1.0006175 2.1815131 -0.63240033 14
-0.99462187 2.169441 -0.54172218 15
-0.98312044 2.1453424 -0.45085809 16
-0.99282271 2.1675134 -0.37112245 11
-1.0034391 2.1917012 -0.29085368 11
-1.4709474 3.2143095 -0.30591667 14
-1.4905703 3.258693 -0.18517388 17
-1.4793141 3.2355771 -0.06143247 30
-1.4874029 3.2547712 0.94795388 36
-1.4834902 3.2477086 0.81483108 15
-1.4836477 3.2495542 0.68629557 17
-1.477778 3.2381938 0.55707431 18
-1.4761525 3.2361274 0.43141267 20
-1.4871439 3.2617307 0.30965546 17
-1.4756656 3.2380526 0.18386984 23
-1.4706546 3.2285502 0.060645428 32
-0.99299651 2.1849928 -0.63240033 14
-0.98704302 2.1728992 -0.54172218 16
-0.97359651 2.1442916 -0.44990486 16
-0.99137342 2.1844571 -0.37346637 11
-0.99578243 2.1951902 -0.29085368 9
-1.4617751 3.2239609 -0.30635244 12
-1.475064 3.2547801 -0.18465227 18
-1.4638851 3.2316134 -0.061257944 29
-1.4720482 3.2511435 0.9453674 35
-1.4701356 3.2484283 0.81370717 15
-1.4702725 3.2502408 0.68534243 17
-1.464431 3.2388327 0.55629301 18
-1.4628036 3.236738 0.43080422 20
-1.4736986 3.2623625 0.30922052 18
-1.462299 3.2386332 0.18360904 23
-1.4573194 3.2291071 0.060559038 32
-0.98338056 2.1840417 -0.63110709 13
-0.97745281 2.1718891 -0.54059827 15
-0.96610564 2.1476772 -0.44990486 17
-0.98171699 2.1834002 -0.37268507 10
-0.97997618 2.1805458 -0.28841975 7
-1.4464304 3.2199564 -0.30548087 14
-1.4616483 3.2553539 -0.18439145 17
-1.4505488 3.2321424 -0.061170679 29
-1.4587138 3.2518554 0.94407409 34
-1.4567944 3.2490947 0.81258327 15
-1.4569108 3.2508743 0.68438917 18
-1.4510974 3.2394176 0.55551171 17
-1.4494684 3.2372949 0.43019572 21
-1.4602673 3.2629404 0.30878565 17
-1.4489462 3.2391598 0.18334822 23
-1.4439985 3.2296107 0.060472652 31
-0.97575086 2.1874611 -0.63110709 14
-0.96788144 2.1708376 -0.53947437 15
-0.95660502 2.1465533 -0.44895169 17
-0.96806109 2.17328 -0.37034112 8
-0.97841454 2.1975548 -0.29024521 6
-1.4331567 3.2204351 -0.3050451 10
-1.4462175 3.2513118 -0.18386984 17
-1.4351958 3.22805 -0.060996156 28
-1.4434311 3.2481003 0.94148761 34
-1.4434662 3.2497075 0.81145936 15
-1.4455543 3.25594 0.68438917 18
-1.4377779 3.2399492 0.55473042 17
-1.436147 3.2377982 0.42958724 20
-1.4468498 3.2634642 0.30835071 19
-1.4335846 3.2350676 0.18282661 24
-1.4306914 3.2300603 0.060386259 31
-0.96615696 2.1864359 -0.62981385 13
-0.96029794 2.1742029 -0.53947437 16
-0.94712394 2.1453888 -0.44799849 17
-0.95847535 2.1721277 -0.36955982 6
-0.98275405 2.2282016 -0.29389611 8
-1.4198973 3.2208605 -0.30460933 13
-1.4328463 3.2517712 -0.18360904 16
-1.4219041 3.2284653 -0.060908895 29
-1.4301383 3.2486985 0.94019437 34
-1.4301516 3.2502666 0.81033546 15
-1.4322041 3.2564731 0.68343604 19
-1.4244721 3.240427 0.55394906 17
-1.4208435 3.2337043 0.4283703 22
-1.4314435 3.2593734 0.3074809 17
-1.4202765 3.2354803 0.18256581 22
-1.417399 3.2304571 0.060299873 31
-0.95658225 2.1853704 -0.62852055 14
-0.95074987 2.1730783 -0.53835046 16
-0.9376629 2.1441851 -0.44704533 17
-0.94693148 2.1664097 -0.3679972 4
-0.9769569 2.236166 -0.29450455 9
-1.4066525 3.2212327 -0.30417356 16
-1.4174918 3.2476001 -0.18308742 17
-1.4086268 3.2288265 -0.060821634 29
-1.4168589 3.2492435 0.93890113 33
-1.4149042 3.2463069 0.80808765 14
-1.4188679 3.2569528 0.68248284 19
-1.409209 3.2363236 0.55238646 16
-1.4075665 3.2340939 0.42776179 22
-1.4180704 3.2597828 0.307046 18
-1.4069829 3.2358391 0.18230499 22
-1.4015657 3.2264597 0.060127094 30
-0.94664562 2.1844304 -0.62722731 13
-0.94277877 2.1765485 -0.53835046 16
-0.92784762 2.1431029 -0.44609213 18
-0.93898481 2.1698658 -0.3679972 3
-0.97072464 2.2442868 -0.29511306 8
-1.3928601 3.2217946 -0.30373776 21
-1.4035985 3.2481902 -0.18282661 18
-1.3948009 3.2293785 -0.060734373 28
-1.4011118 3.2455461 0.93631458 32
-1.4010659 3.2469974 0.80696374 15
-1.4049772 3.2576244 0.68152958 19
-1.3953828 3.236932 0.55160517 16
-1.3937398 3.2346735 0.42715335 21
-1.404143 3.2603834 0.30661109 18
-1.391165 3.2318015 0.18178338 23
-1.3883189 3.2267401 0.060040701 30
-0.93710977 2.1832829 -0.62593406 14
-0.93325466 2.1753488 -0.53722656 16
-0.91842681 2.1418178 -0.44513896 13
-0.93335032 2.1776693 -0.3687785 4
-0.96288472 2.2476616 -0.29511306 7
-1.3816054 3.2266369 -0.30373776 26
-1.3902872 3.2484796 -0.18256581 17
-1.3815535 3.2296309 -0.060647108 28
-1.3878753 3.2459762 0.9350214 33
-1.3858942 3.2429082 0.80471593 15
-1.3916693 3.2579949 0.68057644 19
-1.380197 3.2326992 0.55004251 17
-1.3804922 3.2349541 0.42654485 22
-1.3907993 3.2606833 0.30617619 16
-1.3779172 3.2320449 0.18152258 22
-1.3750873 3.2269678 0.059954315 29
-0.92759353 2.182096 -0.62464082 14
-0.92565554 2.1785932 -0.53722656 17
-0.90902621 2.1404929 -0.44418573 14
-0.9257431 2.1809142 -0.3687785 3
nan nan nan 0
-1.3683894 3.2268541 -0.30330199 28
-1.3769908 3.2487154 -0.18230499 17
-1.3683215 3.229831 -0.06055985 27
-1.3746531 3.2463534 0.9337281 33
-1.3726668 3.2432392 0.80359203 14
-1.378376 3.2583125 0.67962325 18
-1.3669809 3.2329485 0.54926121 16
-1.3672599 3.235182 0.42593637 20
-1.3774706 3.2609301 0.30574125 17
-1.3646847 3.232235 0.18126176 23
-1.3618709 3.2271419 0.059867922 29
-0.91809696 2.1808691 -0.62334752 14
-0.91615558 2.1773202 -0.53610265 13
-0.89964622 2.1391287 -0.44323257 14
-0.92003852 2.1886852 -0.36955982 4
nan nan nan 0
-1.3551885 3.2270188 -0.30286619 28
-1.3637097 3.248898 -0.18204419 19
-1.3551048 3.2299774 -0.060472585 28
-1.3614452 3.2466784 0.93243486 35
-1.3594543 3.2435176 0.80246812 15
-1.3650973 3.2585769 0.67867005 19
-1.3537803 3.2331452 0.54847991 16
-1.3540425 3.2353568 0.42532787 20
-1.3641572 3.2611232 0.30530638 17
-1.3495417 3.2277656 0.18074015 22
-1.3486701 3.2272635 0.059781536 30
-0.90862018 2.1796024 -0.62205434 14
-0.90854979 2.180505 -0.53610265 14
-0.89217383 2.142256 -0.44323257 15
-0.91239297 2.1918836 -0.36955982 5
nan nan nan 0
-1.3420032 3.2271307 -0.30243042 28
-1.3504443 3.249028 -0.18178338 18
-1.339986 3.2254548 -0.060298059 29
-1.3463994 3.2424896 0.92984837 34
-1.3462563 3.2437432 0.80134422 16
-1.3518339 3.2587886 0.67771685 19
-1.3405946 3.233289 0.54769862 16
-1.3408408 3.2354789 0.42471942 20
-1.3508593 3.2612629 0.30487144 18
-1.3363564 3.227843 0.18047935 20
-1.3335735 3.2227125 0.059608754 30
-0.8991636 2.1782966 -0.62076104 15
-0.89907467 2.1791594 -0.53497875 14
-0.88281912 2.1408191 -0.44227937 15
-0.90661824 2.1996207 -0.37034112 7
-1.3264999 3.2199252 -0.4222855 14
-1.3288338 3.2271893 -0.30199465 28
-1.3371946 3.2491045 -0.18152258 19
-1.3268169 3.2254889 -0.060210798 28
-1.3332361 3.2427022 0.92855507 35
-1.3330735 3.2439167 0.80022031 14
-1.3385855 3.2589474 0.67676371 18
-1.3274246 3.2333803 0.54691732 17
-1.3295388 3.2401397 0.42471942 22
-1.3375771 3.2613499 0.30443653 18
-1.3212931 3.223248 0.17995772 20
-1.3204205 3.2227223 0.059522364 31
-0.89155447 2.181422 -0.62076104 15
-0.88962018 2.1777742 -0.53385484 14
-0.87348568 2.139344 -0.4413262 15
-0.89893454 2.2027719 -0.37034112 10
-1.3152523 3.2245359 -0.4222855 14
-1.3156804 3.2271962 -0.30155888 29
-1.3239607 3.2491283 -0.18126176 18
-1.3136642 3.225471 -0.060123537 28
-1.3200879 3.2428632 0.92726189 34
-1.3199058 3.2440374 0.79909641 15
-1.3235036 3.2545066 0.67485732 19
-1.3142704 3.2334192 0.54613596 17
-1.3163525 3.2401626 0.42411092 21
-1.3243107 3.261384 0.30400163 17
-1.3081561 3.2232137 0.17969692 21
-1.307284 3.2226789 0.059435975 31
-0.88212276 2.1800435 -0.61946785 15
-0.88018608 2.1763494 -0.53273094 14
-0.86601269 2.14238 -0.4413262 15
-0.88939005 2.2013175 -0.36955982 12
-1.3002719 3.2199037 -0.42106855 18
-1.3025429 3.2271497 -0.30112308 29
-1.3107429 3.2490995 -0.18100096 20
-1.3005277 3.2254002 -0.060036272 29
-1.3069547 3.2429714 0.92596859 34
-1.3067536 3.2441058 0.7979725 14
-1.310302 3.2545533 0.67390412 18
-1.3011318 3.2334056 0.54535466 17
-1.3050342 3.2447379 0.42411092 23
-1.3110604 3.2613654 0.30356672 17
-1.2950354 3.2231271 0.1794361 23
-1.2936014 3.2228096 0.059349585 30
-0.87412661 2.1832619 -0.61946785 15
-0.8703934 2.1750379 -0.53160703 15
-0.85633171 2.1409822 -0.440373 15
-0.87764937 2.1953909 -0.3679972 13
-1.2884617 3.224648 -0.42106855 12
-1.2888588 3.2272763 -0.30068731 30
-1.2951235 3.244607 -0.18047935 20
-1.2868447 3.2255018 -0.059949014 28
-1.2932709 3.2432535 0.92467535 34
-1.293051 3.2443478 0.7968486 15
-1.2947319 3.2502146 0.67199773 17
-1.2856187 3.2289762 0.54379207 17
-1.2912979 3.2448885 0.42350245 24
-1.2972572 3.2615204 0.30313182 17
-1.2813687 3.223212 0.1791753 23
-1.2804977 3.2226593 0.059263196 31
-0.86650026 2.1862998 -0.61946785 15
-0.86279583 2.1780629 -0.53160703 15
-0.84885305 2.1439581 -0.440373 15
-0.86634624 2.1892571 -0.3664346 10
-1.2735469 3.2198958 -0.41985154 14
-1.2757545 3.2271237 -0.30025154 30
-1.2819549 3.2444642 -0.18021853 20
-1.2737415 3.2253242 -0.059861749 29
-1.2801688 3.2432559 0.9233821 36
-1.27993 3.2443092 0.79572469 15
-1.2815779 3.2501478 0.67104459 17
-1.2725285 3.2288494 0.54301071 17
-1.2781442 3.2447586 0.42289397 23
-1.2840397 3.2613938 0.30269691 17
-1.2682815 3.2230189 0.17891449 23
-1.2674109 3.2224572 0.059176806 31
-0.85709953 2.1848149 -0.61817455 15
-0.85340923 2.1765254 -0.53048313 14
-0.83957326 2.1423385 -0.43941984 16
-0.85509664 2.1830709 -0.36487198 11
-1.2641089 3.2289429 -0.42046005 14
nan nan nan 0
-1.268803 3.2442689 -0.17995772 21
-1.2606553 3.2250946 -0.059774488 29
-1.2688398 3.2477045 0.9233821 36
-1.2668254 3.2442191 0.79460078 15
-1.2684406 3.2500293 0.67009133 16
-1.2594554 3.2286708 0.54222941 17
-1.2650075 3.2445762 0.4222855 20
-1.270839 3.261215 0.30226198 17
-1.2552111 3.2227738 0.17865369 22
-1.2543411 3.2222028 0.059090417 32
-0.84946787 2.1877933 -0.61817455 16
-0.84580654 2.1794913 -0.53048313 16
-0.83209002 2.1452563 -0.43941984 16
-0.84390098 2.1768334 -0.36330935 11
nan nan nan 0
nan nan nan 0
-1.2556684 3.2440217 -0.17969692 21
-1.2493898 3.2294755 -0.059774488 29
-1.2557535 3.2476091 0.9220888 37
-1.2537371 3.2440767 0.79347688 14
-1.253551 3.24528 0.668185 18
-1.2446202 3.2238333 0.54066682 16
-1.2518874 3.2443421 0.42167699 20
-1.2576551 3.2609839 0.3018271 18
-1.2421581 3.2224765 0.17839287 24
-1.2412887 3.2218966 0.059004027 31
-0.84009349 2.1862371 -0.61688131 16
-0.8364467 2.177882 -0.52935922 16
-0.82283759 2.1435652 -0.43846661 15
-0.83275914 2.1705441 -0.36174673 11
nan nan nan 0
nan nan nan 0
-1.2425507 3.2437222 -0.1794361 19
-1.2363218 3.2291479 -0.059687223 30
-1.2444097 3.2519727 0.9220888 37
-1.2406648 3.2438824 0.79235297 15
-1.2404627 3.2450511 0.6672318 18
-1.2315968 3.2235446 0.53988552 17
-1.2387846 3.244056 0.42106855 20
-1.2444884 3.2607005 0.30139217 17
-1.2291223 3.2221274 0.17813207 22
-1.2282536 3.2215383 0.058917638 29
-0.83245701 2.1891563 -0.61688131 16
-0.82883942 2.1807885 -0.52935922 16
-0.81360704 2.1418357 -0.43751341 16
-0.82342458 2.1688206 -0.3609654 14
nan nan nan 0
nan nan nan 0
-1.2294507 3.2433708 -0.1791753 20
-1.2232713 3.2287693 -0.059599966 29
-1.2330506 3.2562969 0.9220888 45
-1.2276096 3.2436373 0.79122907 16
-1.227391 3.2447703 0.6662786 19
-1.2185905 3.2232044 0.53910416 17
-1.2256988 3.2437179 0.42046005 20
-1.231339 3.2603648 0.30095726 17
-1.2161041 3.2217269 0.17787126 23
-1.2152361 3.2211289 0.058831248 29
-0.82310933 2.1875281 -0.61558807 17
-0.819507 2.1791081 -0.52823532 15
-0.80612576 2.1446626 -0.43751341 16
-0.81237543 2.1624355 -0.35940278 12
-0.93105823 2.4796681 -0.32006076 12
-0.9357273 2.4934258 -0.22965539 6
-1.2163681 3.2429674 -0.17891449 22
-1.2084836 3.2236574 -0.05942544 29
-1.2199819 3.2560582 0.92079562 40
-1.2145711 3.24334 0.79010516 15
-1.2143368 3.2444384 0.66532546 17
-1.2073319 3.2274384 0.53910416 17
-1.2126307 3.2433281 0.41985154 21
-1.2182071 3.2599773 0.30052236 17
-1.2048508 3.2259524 0.17787126 23
-1.2022367 3.2206678 0.058744859 29
-0.81378335 2.1858618 -0.61429483 17
-0.81189549 2.1819553 -0.52823532 17
-0.79692376 2.1428633 -0.43656024 17
-0.80310142 2.1606288 -0.35862145 14
-0.92066866 2.478251 -0.31945229 12
-0.92355043 2.4873378 -0.22878383 5
-1.2033033 3.2425122 -0.17865369 21
-1.195485 3.2231688 -0.059338178 29
-1.2086086 3.2602971 0.92079562 37
-1.2015496 3.2429912 0.78898126 15
-1.2012997 3.2440546 0.66437227 18
-1.1943446 3.2270019 0.53832287 18
-1.1995802 3.2428868 0.41924307 22
-1.2068202 3.2642097 0.30052236 17
-1.1918521 3.2254546 0.17761046 23
-1.188693 3.2203627 0.058658469 29
-0.80576628 2.1888299 -0.61429483 16
-0.80221057 2.1803443 -0.52711141 17
-0.78906441 2.1457698 -0.43656024 17
-0.79347324 2.1589224 -0.35784018 14
-0.909868 2.4769499 -0.31884378 12
-0.91614431 2.4953818 -0.2292196 6
-1.1914109 3.246901 -0.17865369 21
-1.1819421 3.2228353 -0.059250917 28
-1.1949887 3.2601697 0.91950232 40
-1.1879793 3.2427988 0.78785735 15
-1.187714 3.2438266 0.66341907 17
-1.1808118 3.2267199 0.53754157 18
-1.1859818 3.2426004 0.41863459 22
-1.193138 3.2639327 0.30008742 17
-1.1783086 3.2251115 0.17734964 24
-1.1757299 3.2197959 0.05857208 30
-0.79646826 2.1870906 -0.61300153 17
-0.79292852 2.1785531 -0.52598751 19
-0.77989143 2.143898 -0.43560702 17
-0.78424495 2.1570377 -0.35705885 15
-0.89782643 2.4707823 -0.31762683 11
-0.91422951 2.5172915 -0.23096271 14
-1.1783662 3.2463465 -0.17839287 21
-1.1689802 3.2222419 -0.059163652 29
-1.1819551 3.2597809 0.91820908 39
-1.1766528 3.2469256 0.78785735 15
-1.1763836 3.2479527 0.66341907 17
-1.1678603 3.2261782 0.53676027 18
-1.1729673 3.242054 0.41802612 20
-1.1800437 3.2633934 0.29965255 17
-1.1653467 3.224509 0.17708884 22
-1.1627852 3.2191789 0.058485691 30
-0.78555524 2.1807694 -0.61041504 10
-0.78696948 2.1858916 -0.52711141 14
-0.772403 2.1466076 -0.43560702 16
-0.77503943 2.1551149 -0.35627756 10
-0.88583899 2.4645605 -0.31640986 11
-0.90206897 2.5110919 -0.23009115 13
-1.1653398 3.2457404 -0.17813207 20
-1.1560371 3.2215974 -0.059076395 30
-1.1689385 3.2593403 0.91691583 38
-1.1636678 3.2464271 0.78673345 14
-1.1633837 3.2474186 0.66246587 18
-1.1549269 3.2255857 0.53597891 18
-1.159971 3.241456 0.41741762 20
-1.1686451 3.2674928 0.29965255 18
-1.1524032 3.223855 0.17682803 24
-1.1498591 3.2185102 0.058399301 30
nan nan nan 0
-0.77443141 2.1748559 -0.5237397 14
-0.7583226 2.130794 -0.43179429 13
-0.76585692 2.1531541 -0.35549623 24
-0.87058127 2.4489331 -0.31397596 8
-0.89496577 2.5189192 -0.23052694 12
-1.1523322 3.2450831 -0.17787126 20
-1.1431124 3.2209017 -0.05898913 27
-1.1559396 3.2588489 0.91562259 38
-1.1523286 3.2504692 0.78673345 15
-1.1504017 3.2468333 0.66151267 17
-1.1420121 3.2249424 0.53519762 18
-1.1469934 3.2408068 0.41680917 18
-1.1555712 3.2668562 0.29921761 18
-1.1394786 3.2231507 0.17656721 23
-1.1363903 3.2179892 0.058312912 30
-0.63035679 1.7899952 -0.4979021 23
-0.7571252 2.1499734 -0.51699626 7
-0.75250965 2.1380582 -0.43274748 17
-0.75833637 2.1558144 -0.35549623 31
-0.84556752 2.405138 -0.30789116 8
-0.88286525 2.5126293 -0.22965539 12
-1.1393433 3.2443745 -0.17761046 19
-1.1318624 3.2248721 -0.05898913 30
-1.1429584 3.2583065 0.91432929 39
-1.1393634 3.2498739 0.78560954 15
-1.1374381 3.246197 0.66055948 18
-1.1307479 3.228909 0.53519762 18
-1.1340343 3.2401066 0.41620067 22
-1.1425163 3.2661684 0.29878271 17
-1.1282209 3.2271087 0.17656721 23
-1.1240637 3.2170203 0.058226522 30
-0.61965001 1.7783929 -0.49402237 12
nan nan nan 0
-0.74020171 2.126765 -0.42988792 10
-0.74593908 2.1444552 -0.3531523 15
-0.82249987 2.365886 -0.3024148 8
-0.87572384 2.5204005 -0.23009115 14
-1.1263733 3.2436147 -0.17734964 20
-1.1189594 3.2240808 -0.058901869 29
-1.1299949 3.2577131 0.91303611 39
-1.1280122 3.2538314 0.78560954 15
-1.1260998 3.2501476 0.66055948 16
-1.117854 3.2281694 0.53441632 17
-1.1227175 3.2440453 0.41620067 21
-1.1311082 3.2701364 0.29878271 18
-1.1153177 3.2263079 0.17630641 21
-1.111195 3.2161996 0.058140133 30
-0.62602443 1.8170767 -0.50436836 13
-0.60727167 1.7636449 -0.42146435 9
nan nan nan 0
-0.73844898 2.1470459 -0.3531523 8
-0.79649031 2.3171163 -0.29572153 10
-0.86853915 2.5281529 -0.23052694 11
-1.1134226 3.2428045 -0.17708884 18
-1.1060758 3.2232382 -0.058814604 30
-1.1186165 3.2616377 0.91303611 39
-1.1150677 3.25314 0.78448564 15
-1.1131572 3.2494154 0.65960634 17
-1.1049792 3.2273796 0.53363502 17
-1.1097801 3.2432494 0.41559219 20
-1.1180745 3.2693517 0.2983478 17
-1.1024343 3.2254567 0.1760456 22
-1.0999616 3.2200589 0.058140133 29
-0.63525081 1.86497 -0.5173009 5
-0.60111165 1.765754 -0.42146435 13
-0.60992569 1.7926705 -0.36030519 14
-0.72300035 2.1262319 -0.34924576 4
-0.77562207 2.2822912 -0.29085368 11
-0.86932039 2.5594676 -0.23314162 9
-1.1020964 3.2466712 -0.17708884 19
-1.0932118 3.2223456 -0.058727346 29
-1.1056736 3.2609484 0.91174281 38
-1.1021416 3.2523985 0.78336173 15
-1.1002333 3.248632 0.65865314 18
-1.0937067 3.2312171 0.53363502 18
-1.0968617 3.2424021 0.41498372 20
-1.1050602 3.2685163 0.2979129 17
-1.08957 3.2245548 0.17578478 22
-1.0865533 3.2193317 0.058053743 28
nan nan nan 0
-0.62259305 1.8510664 -0.44169462 10
-0.58771187 1.7483691 -0.35077327 28
nan nan nan 0
-0.76093316 2.2662997 -0.28841975 14
nan nan nan 0
-1.0870141 3.2412207 -0.17656721 20
-1.081394 3.2263308 -0.058727346 29
-1.09218 3.2603993 0.91044956 36
-1.0886669 3.251796 0.78223783 15
-1.0883192 3.2526429 0.65865314 18
-1.0802901 3.2305202 0.53285366 20
-1.0833974 3.2416935 0.41437525 20
-1.0914949 3.2678196 0.29747799 17
-1.0761631 3.2237902 0.17552398 22
-1.073727 3.2183626 0.057967354 29
-0.75299948 2.2636001 -0.62852055 6
