# .PCD v0.7 - Point Cloud Data file format
VERSION 0.7
FIELDS x y z intensity
SIZE 4 4 4 4
TYPE F F F F
COUNT 1 1 1 1
WIDTH 1436
HEIGHT 1
VIEWPOINT 0 0 0 1 0 0 0
POINTS 1436
DATA ascii
-2.1872294 -0.94016016 0.62722731 22
-2.1882892 -0.94016314 0.54059827 14
nan nan nan 0
nan nan nan 0
nan nan nan 0
nan nan nan 0
nan nan nan 0
-2.2638967 -0.96983969 0.041898906 15
-1.8605391 -0.7951228 -0.53152668 49
-1.8542224 -0.79204065 -0.45630541 47
-1.8272716 -0.78015137 -0.37841576 46
-1.8384626 -0.78455001 -0.31018025 50
-1.8200686 -0.77632499 -0.23791587 13
-2.2665942 -0.96631682 -0.21222423 9
-2.3549209 -1.0034875 -0.13170819 6
-2.2153223 -0.94354439 -0.0413622 26
-2.1860538 -0.9306277 0.62593406 23
-2.1870742 -0.93061119 0.53947437 14
nan nan nan 0
nan nan nan 0
nan nan nan 0
nan nan nan 0
nan nan nan 0
-2.2442575 -0.95216852 0.041466959 16
-1.8588551 -0.7867409 -0.53023344 51
-1.8569758 -0.78556335 -0.45630541 43
-1.8254628 -0.77185667 -0.37746257 46
-1.8366408 -0.77620524 -0.30939892 44
-1.8181956 -0.76803589 -0.2373074 12
-2.2883086 -0.96614873 -0.21396735 9
-2.2940049 -0.96808207 -0.12805687 30
-2.2278149 -0.93969154 -0.041536722 34
-2.1848385 -0.92111504 0.62464082 23
-2.1858196 -0.9210794 0.53835046 9
nan nan nan 0
nan nan nan 0
nan nan nan 0
nan nan nan 0
nan nan nan 0
-2.2475674 -0.94432878 0.041466959 15
-1.8571357 -0.77838051 -0.52894014 51
-1.8552129 -0.77719396 -0.45518148 50
-1.8281459 -0.76547998 -0.37746257 44
-1.8393391 -0.76978946 -0.30939892 47
-1.816287 -0.75976932 -0.23669893 10
-2.3146446 -0.96776211 -0.21614625 9
-2.3157983 -0.96776974 -0.1291001 26
-2.2403073 -0.93576288 -0.041711248 31
-2.1880405 -0.9134829 0.62464082 23
-2.162044 -0.90218651 0.53160703 6
nan nan nan 0
nan nan nan 0
nan nan nan 0
nan nan nan 0
nan nan nan 0
-2.2462344 -0.9345572 0.041380569 13
-1.8553804 -0.77004176 -0.5276469 50
-1.8579146 -0.77071327 -0.45518148 47
-1.8262727 -0.75721395 -0.37650937 48
-1.8374525 -0.76147354 -0.30861759 48
-1.818928 -0.75342464 -0.23669893 9
-2.3226106 -0.96158183 -0.21658202 9
-2.3191624 -0.9596802 -0.1291001 19
-2.2204618 -0.9183836 -0.041274939 13
-2.1867526 -0.90399444 0.62334752 22
-2.1876938 -0.90393656 0.53722656 5
nan nan nan 0
nan nan nan 0
nan nan nan 0
nan nan nan 0
nan nan nan 0
-2.2402382 -0.92290211 0.04120779 3
-1.8580573 -0.76356053 -0.5276469 52
-1.856087 -0.76237226 -0.4540576 47
-1.8289047 -0.75083441 -0.37650937 40
-1.8400995 -0.75505495 -0.30861759 49
-1.8307303 -0.75083721 -0.23791587 8
-2.3213441 -0.95157933 -0.21614625 9
-2.3086371 -0.94589972 -0.12831768 19
-2.2005224 -0.90115428 -0.040838629 16
-2.1854248 -0.89452612 0.62205434 23
-2.2178915 -0.90736341 0.54396999 12
nan nan nan 0
nan nan nan 0
nan nan nan 0
nan nan nan 0
-4.1499295 -1.6935549 0.23211938 2
-2.280478 -0.93018162 0.041898906 4
-1.8607113 -0.75707012 -0.5276469 55
-1.8587369 -0.7558887 -0.4540576 51
-1.8315146 -0.74444574 -0.37650937 49
-1.8427238 -0.74862725 -0.30861759 49
-1.8379382 -0.74630928 -0.23852436 20
-2.3200362 -0.9415974 -0.21571046 9
-2.3026707 -0.93408144 -0.12779607 32
-2.1804903 -0.88407546 -0.040402319 14
-2.1840575 -0.88507813 0.62076104 23
-2.2391083 -0.90693218 0.54846561 9
nan nan nan 0
nan nan nan 0
nan nan nan 0
nan nan nan 0
-4.1558156 -1.6790584 0.23211938 2
-2.3022532 -0.92970324 0.042244464 3
-1.8588624 -0.74876577 -0.52635366 55
-1.8568444 -0.7475763 -0.45293367 51
-1.8295486 -0.73621577 -0.37555617 47
-1.840744 -0.74034756 -0.30783629 52
-1.8543462 -0.74544239 -0.2403498 11
-2.3186872 -0.93163621 -0.21527469 9
-2.3012838 -0.92417711 -0.12753525 43
-2.1464472 -0.86156094 -0.039704222 15
-2.1871336 -0.87744892 0.62076104 23
-2.2467823 -0.90092391 0.54958951 6
nan nan nan 0
nan nan nan 0
nan nan nan 0
nan nan nan 0
-4.1523795 -1.6608334 0.23159777 2
-2.3240526 -0.92908424 0.042590022 6
-1.8614647 -0.74227256 -0.52635366 52
-1.8549168 -0.7392863 -0.45180979 52
-1.8321073 -0.7298249 -0.37555617 48
-1.843317 -0.73391765 -0.30783629 51
-1.8661593 -0.74263495 -0.24156678 10
-2.3219252 -0.92353684 -0.21527469 10
-2.2952156 -0.9124493 -0.12701364 50
-2.1587331 -0.85775524 -0.039878745 17
-2.1856945 -0.86802644 0.61946785 23
-2.2499132 -0.8930757 0.54958951 3
nan nan nan 0
nan nan nan 0
nan nan nan 0
nan nan nan 0
-4.1349387 -1.637138 0.23029372 1
-2.3086874 -0.91360795 0.042244464 30
-1.8595519 -0.73399705 -0.52506042 52
-1.8574861 -0.73280692 -0.45180979 51
-1.8300776 -0.72162479 -0.374603 45
-1.8412731 -0.72566801 -0.307055 41
-1.8825929 -0.74157298 -0.24339221 10
-2.3251348 -0.91542614 -0.21527469 10
-2.2983866 -0.904432 -0.12701364 39
-2.1663666 -0.85204446 -0.03996601 18
-2.184216 -0.85862458 0.61817455 23
-2.3119669 -0.90837824 0.56420028 2
nan nan nan 0
nan nan nan 0
nan nan nan 0
nan nan nan 0
nan nan nan 0
-2.3072078 -0.90372038 0.042158078 17
-1.8621027 -0.72750151 -0.52506042 50
-1.8554944 -0.72454649 -0.45068586 45
-1.8325855 -0.71523219 -0.374603 46
-1.8437949 -0.71923637 -0.307055 45
-1.8990412 -0.74040526 -0.24521764 8
-2.328316 -0.90730435 -0.21527469 11
-2.264308 -0.88190633 -0.12492718 12
-2.1553516 -0.83903658 -0.039704222 18
-2.182699 -0.84924376 0.61688131 24
-2.3559904 -0.91619462 0.57431537 2
nan nan nan 0
nan nan nan 0
nan nan nan 0
nan nan nan 0
nan nan nan 0
-2.3010256 -0.89204705 0.041985296 6
-1.860126 -0.71925521 -0.52376711 51
-1.8580122 -0.7180652 -0.45068586 51
-1.8350708 -0.70883095 -0.374603 43
-1.8462943 -0.71279597 -0.307055 44
-1.9201345 -0.74091822 -0.24765156 7
-2.3314691 -0.89917159 -0.21527469 10
-2.2533953 -0.86860925 -0.12414475 6
-2.1769271 -0.83869702 -0.040053267 18
-2.1856501 -0.84161961 0.61688131 23
-2.3910029 -0.92021483 0.58218277 2
nan nan nan 0
nan nan nan 0
nan nan nan 0
nan nan nan 0
nan nan nan 0
-2.3041255 -0.88400948 0.041985296 9
-1.8626254 -0.71275777 -0.52376711 48
-1.8605074 -0.71157515 -0.45068586 46
-1.837534 -0.70242101 -0.374603 43
-1.8487712 -0.70634687 -0.307055 39
-1.8902552 -0.72181827 -0.24339221 6
-2.3206325 -0.88569933 -0.21396735 5
-2.2330871 -0.85184008 -0.12284071 17
-2.1845126 -0.83287394 -0.040140532 25
-2.1840611 -0.83226514 0.61558807 23
-2.3942003 -0.91186309 0.58218277 2
nan nan nan 0
nan nan nan 0
nan nan nan 0
nan nan nan 0
-4.1200514 -1.5650606 0.22820726 1
-2.3118711 -0.87773579 0.042071685 16
-1.8651019 -0.70625168 -0.52376711 53
-1.8675365 -0.70680094 -0.45180979 47
-1.8399748 -0.69600248 -0.374603 44
-1.8512255 -0.69988912 -0.307055 41
-1.9438304 -0.73451227 -0.2500855 11
-2.3330293 -0.88111305 -0.21483891 11
-2.2220328 -0.83874989 -0.12205828 17
-2.1920843 -0.82700825 -0.040227797 18
-2.1869528 -0.82463634 0.61558807 24
-2.4156051 -0.91037285 0.58667839 2
nan nan nan 0
nan nan nan 0
nan nan nan 0
nan nan nan 0
-4.1208158 -1.5489128 0.22794645 1
-2.3197532 -0.87101376 0.042158078 4
-1.8676779 -0.69941103 -0.52376711 39
-1.8701146 -0.69995135 -0.45180979 49
-1.8471104 -0.69097376 -0.37555617 32
-1.8537784 -0.69309932 -0.307055 34
-2.0301888 -0.75865263 -0.26103815 13
-2.2569189 -0.84292948 -0.20743066 18
-2.2157362 -0.82710773 -0.12153666 19
-2.2185202 -0.82770574 -0.040664103 19
-2.1854353 -0.81492776 0.61429483 24
-2.4326215 -0.9066174 0.5900501 2
nan nan nan 0
nan nan nan 0
nan nan nan 0
nan nan nan 0
nan nan nan 0
-2.3227794 -0.86291105 0.042158078 17
-1.874637 -0.69456542 -0.52506042 75
-1.8771154 -0.69511104 -0.45293367 71
-1.849511 -0.68452191 -0.37555617 64
-1.8561864 -0.68662417 -0.307055 51
-2.1352322 -0.78942269 -0.2744247 17
-2.1991088 -0.81260246 -0.20176555 20
-2.2092419 -0.81590855 -0.12101505 24
-2.1885657 -0.80783856 -0.040053267 22
-2.1882668 -0.80729419 0.61429483 23
-2.4494848 -0.90317696 0.59342182 2
nan nan nan 0
nan nan nan 0
nan nan nan 0
nan nan nan 0
nan nan nan 0
-2.3163922 -0.85134846 0.041985296 7
-1.87705 -0.68801743 -0.52506042 60
-1.8749557 -0.68687856 -0.45180979 41
-1.8518894 -0.67806166 -0.37555617 56
-1.8632096 -0.68183786 -0.30783629 61
-2.1566181 -0.78878337 -0.27685863 13
-2.1878974 -0.79979086 -0.20045821 17
-2.1980066 -0.80305141 -0.12023263 23
-2.1772847 -0.79504991 -0.039791483 22
-2.1865342 -0.79799491 0.61300153 24
-2.4617767 -0.89796031 0.59566957 2
nan nan nan 0
nan nan nan 0
nan nan nan 0
nan nan nan 0
nan nan nan 0
-2.3522384 -0.85521507 0.042590022 2
-1.8794403 -0.6814611 -0.52506042 52
-1.8727614 -0.67866957 -0.45068586 47
-1.845015 -0.66825038 -0.37364981 43
-1.8609347 -0.67364889 -0.307055 39
-2.1733587 -0.78631592 -0.27868408 14
-2.1906757 -0.79214877 -0.20045821 22
-2.1867085 -0.79028267 -0.1194502 23
-2.1612391 -0.78065145 -0.039442439 15
-2.1893063 -0.79035765 0.61300153 24
-2.4648964 -0.88936156 0.59566957 2
nan nan nan 0
nan nan nan 0
nan nan nan 0
nan nan nan 0
nan nan nan 0
-2.3787308 -0.85545802 0.043021973 3
-1.872715 -0.67163551 -0.52247393 52
-1.8705326 -0.67048436 -0.44956198 45
-1.8380948 -0.65849519 -0.37174344 44
-1.8539758 -0.66381943 -0.30549237 39
-2.1714177 -0.77705246 -0.27807558 14
-2.1887374 -0.78281963 -0.20002241 20
-2.1894536 -0.78264481 -0.1194502 28
-2.1545353 -0.76973879 -0.039267913 15
-2.1875031 -0.78108656 0.61170834 21
-2.48634 -0.88730222 0.60016519 2
nan nan nan 0
nan nan nan 0
nan nan nan 0
nan nan nan 0
nan nan nan 0
-2.4099634 -0.85720158 0.043540306 2
-1.8704959 -0.66347975 -0.52118063 47
-1.8636776 -0.66069514 -0.44731417 46
-1.8357557 -0.65043581 -0.37079024 44
-1.8516263 -0.65569526 -0.30471104 39
-2.1834736 -0.77277976 -0.27929255 28
-2.1914568 -0.77517474 -0.20002241 22
-2.2015877 -0.77832609 -0.11997182 26
-2.1477816 -0.75888234 -0.03909339 13
-2.1856623 -0.77183765 0.61041504 23
-2.4756393 -0.87375337 0.59679353 2
nan nan nan 0
nan nan nan 0
nan nan nan 0
nan nan nan 0
nan nan nan 0
-2.4318051 -0.8554197 0.043885864 2
-1.8636854 -0.65374905 -0.51859415 52
-1.8613749 -0.6525737 -0.44619027 45
-1.8287506 -0.64077777 -0.36888388 42
-1.8445817 -0.64596337 -0.30314845 41
-2.1674209 -0.75859541 -0.27685863 9
-2.1894474 -0.76587576 -0.19958664 20
-2.2137182 -0.77393204 -0.12049343 29
-2.1362593 -0.7464335 -0.038831603 13
-2.1837833 -0.76261133 0.6091218 22
-2.4648743 -0.86028999 0.59342182 2
nan nan nan 0
nan nan nan 0
nan nan nan 0
nan nan nan 0
nan nan nan 0
-2.4206107 -0.84199858 0.043626696 2
-1.8613929 -0.64565682 -0.5173009 50
-1.859038 -0.64447647 -0.44506633 50
-1.8263385 -0.63278347 -0.36793068 44
-1.8421586 -0.63790464 -0.30236712 40
-2.1559863 -0.7461558 -0.27503321 8
-2.1921074 -0.75822842 -0.19958664 17
-2.2258444 -0.7694627 -0.12101505 28
-2.1294014 -0.73570687 -0.038657077 17
-2.1864321 -0.7549839 0.6091218 25
-2.4540458 -0.84691262 0.5900501 2
nan nan nan 0
-2.4453428 -0.84295392 0.40315616 4
-2.4526329 -0.84498811 0.31336749 5
nan nan nan 0
nan nan nan 0
-2.4235351 -0.8335439 0.043626696 10
-1.8590667 -0.6375885 -0.51600766 46
-1.8612763 -0.63798326 -0.44506633 45
-1.8285363 -0.6264044 -0.36793068 43
-1.8443741 -0.63147038 -0.30236712 41
-1.9331914 -0.66150242 -0.24582614 10
-2.194741 -0.75057197 -0.19958664 15
-2.2379665 -0.76491827 -0.12153666 23
-2.1319566 -0.7282694 -0.038657077 18
-2.1844833 -0.74578661 0.60782856 24
-2.4477651 -0.83519453 0.58780229 4
nan nan nan 0
-2.4482706 -0.83441305 0.40315616 5
-2.4555676 -0.83642161 0.31336749 6
-2.4551618 -0.83580524 0.2231085 3
-2.4470241 -0.83255839 0.13301224 6
-2.4358962 -0.82829797 0.043799475 12
-1.856707 -0.62954444 -0.51471442 47
-1.8588777 -0.62991869 -0.44394243 47
-1.8260627 -0.61844343 -0.36697748 43
-1.8418891 -0.62344515 -0.30158582 43
-1.911983 -0.64679861 -0.24278374 16
-2.206785 -0.74609703 -0.20045821 10
-2.2500839 -0.76029849 -0.12205828 22
-2.1771138 -0.73521864 -0.039442439 16
-2.1870732 -0.7381568 0.60782856 24
-2.4552822 -0.82820243 0.5889262 5
nan nan nan 0
-2.4558482 -0.82743877 0.40393749 6
-2.4631755 -0.82942873 0.31397596 6
-2.4391809 -0.82087493 0.22136885 4
-2.4451823 -0.82241976 0.13275142 7
-2.4198179 -0.81341851 0.043453917 10
-1.8588932 -0.62305945 -0.51471442 50
-1.8564456 -0.62187856 -0.44281852 47
-1.8282102 -0.61206549 -0.36697748 43
-1.8440542 -0.6170119 -0.30158582 42
-1.9048158 -0.63697278 -0.24156678 26
-2.2424445 -0.74944115 -0.20350866 7
-2.2621961 -0.75560337 -0.12257989 23
-2.2081187 -0.73711252 -0.03996601 16
-2.185055 -0.72898948 0.60653532 24
-2.4581583 -0.81962681 0.5889262 6
-2.4576986 -0.81899703 0.49565789 4
-2.4493504 -0.81574017 0.40237486 9
-2.4707644 -0.82239294 0.31458443 10
-2.4656632 -0.82021695 0.22354341 6
-2.4527767 -0.81545478 0.13301224 8
-2.4084098 -0.80023777 0.043194748 14
-1.8518871 -0.61352897 -0.51212788 46
-1.8586049 -0.61539459 -0.44281852 43
-1.8303357 -0.60568011 -0.36697748 46
-1.841508 -0.60902059 -0.3008045 41
-1.9070275 -0.63031989 -0.24156678 18
-2.2828839 -0.75410777 -0.20699489 4
-2.2695613 -0.74926758 -0.12284071 31
-2.2629008 -0.74663079 -0.04092589 19
-2.1875863 -0.72135782 0.60653532 24
-2.461004 -0.8110413 0.5889262 7
-2.4652042 -0.81194848 0.49661112 5
-2.4662561 -0.81181777 0.40471879 9
-2.4641917 -0.81066161 0.31336749 9
-2.4590476 -0.80849367 0.22267358 5
-2.446121 -0.8037706 0.13249062 9
-2.39219 -0.78558683 0.042849194 9
-1.8586075 -0.60856384 -0.51342118 43
-1.8561112 -0.6073879 -0.44169462 46
-1.8277736 -0.59776163 -0.36602432 42
-1.8436228 -0.60258877 -0.3008045 44
-1.9044986 -0.62211818 -0.24095827 14
-2.3423228 -0.76468414 -0.21222423 20
-2.2816567 -0.74443835 -0.12336233 24
-2.2179639 -0.72322887 -0.040053267 14
-2.1854987 -0.71222073 0.60524201 24
-2.4730849 -0.80546331 0.59117401 7
-2.4680235 -0.80333841 0.49661112 5
-2.4643784 -0.80167627 0.40393749 8
-2.4670064 -0.80205506 0.31336749 8
-2.4571176 -0.79836589 0.22223866 5
-2.45841 -0.79831141 0.13301224 9
-2.380652 -0.77260214 0.042590022 7
-1.8469347 -0.59761173 -0.50954139 30
-1.8582201 -0.60090512 -0.44169462 45
-1.829849 -0.59137779 -0.36602432 46
-1.8410155 -0.59463179 -0.3000232 44
-1.9066586 -0.61546648 -0.24095827 7
-2.3307567 -0.7519154 -0.21091689 16
-2.293746 -0.73953372 -0.12388394 21
-2.1966836 -0.70781624 -0.039616961 14
-2.1833742 -0.70310718 0.60394883 24
-2.4619684 -0.79234797 0.58780229 6
-2.4521224 -0.78870696 0.49279836 4
-2.46246 -0.79155773 0.40315616 5
-2.4367161 -0.78281307 0.30910811 5
-2.4504039 -0.78673863 0.22136885 4
-2.4421637 -0.78362286 0.131969 6
-2.3690531 -0.75970769 0.042330857 5
-1.7754022 -0.56762761 -0.48884934 25
-1.8556654 -0.59293216 -0.44057071 47
-1.8272266 -0.58349383 -0.36507112 45
-1.8430797 -0.58820182 -0.3000232 43
-2.0742812 -0.66158873 -0.2622551 13
-2.3238754 -0.74074954 -0.21004534 10
-2.3058288 -0.73455381 -0.12440556 17
-2.1515048 -0.68497807 -0.038744342 13
-2.1858153 -0.69548148 0.60394883 23
-2.4322186 -0.77341437 0.57993495 9
-2.4408274 -0.77568293 0.4899388 6
-2.4181392 -0.76800811 0.39534307 16
-2.411052 -0.76529396 0.30545723 16
-2.4341438 -0.77215594 0.21962921 9
-2.4163258 -0.76603961 0.13040414 8
-2.3526273 -0.74539363 0.041985296 19
-1.6392063 -0.51778352 -0.45005178 21
-1.8577238 -0.58645105 -0.44057071 48
-1.8292524 -0.57711202 -0.36507112 49
-1.8404118 -0.58027953 -0.2992419 43
-2.2280469 -0.70207304 -0.28172651 8
-2.326447 -0.73263317 -0.21004534 9
-2.3179045 -0.72949839 -0.12492718 15
-2.1586511 -0.67896366 -0.038831603 12
-2.1836221 -0.68639892 0.60265553 23
-2.4023669 -0.7546984 0.57206756 16
-2.4294715 -0.76274747 0.4870792 10
-2.3736846 -0.74477774 0.38752997 13
-2.3710892 -0.74350888 0.29998088 15
-2.4225652 -0.75918591 0.2183245 10
-2.3951602 -0.75013864 0.1291001 20
-2.3409021 -0.73269695 0.041726127 14
-1.5395705 -0.48040724 -0.42160022 28
-1.8551085 -0.57851243 -0.43944681 47
-1.8265696 -0.5692628 -0.36411792 47
-1.8424261 -0.57385182 -0.2992419 45
-2.2873473 -0.71199131 -0.28902826 7
-2.3242342 -0.72302842 -0.20960957 9
-2.3252046 -0.72288525 -0.12518798 10
-2.1848788 -0.67884099 -0.039267913 13
-2.1860049 -0.67877251 0.60265553 24
-2.3817208 -0.73908824 0.56644809 11
-2.4180548 -0.74990064 0.48421967 13
-2.3715527 -0.73502541 0.38674864 14
-2.3641889 -0.73229092 0.29876393 11
-2.4109254 -0.74630612 0.21701975 14
-2.3643734 -0.73144358 0.12727445 14
-2.3434453 -0.72452116 0.041726127 14
-1.51816 -0.46791726 -0.41513398 25
-1.8524605 -0.57059914 -0.43832293 49
-1.8238544 -0.56143934 -0.36316475 47
-1.8396977 -0.56596488 -0.29846057 47
-2.2898185 -0.70400268 -0.28902826 6
-2.3267438 -0.71491092 -0.20960957 10
-2.3420339 -0.71916145 -0.12597041 8
-2.2302482 -0.68440998 -0.040053267 12
-2.1837432 -0.66972166 0.60136229 22
-2.3703115 -0.72648686 0.56307638 12
-2.4112718 -0.73858058 0.48231328 14
-2.3646593 -0.72385156 0.38518602 11
-2.361985 -0.7225821 0.29815546 12
-2.3944623 -0.73206055 0.21528012 11
-2.352586 -0.71880877 0.12649202 11
-2.3411787 -0.71487659 0.041639738 14
-1.519784 -0.46261507 -0.41513398 32
-1.854441 -0.56412935 -0.43832293 48
-1.821107 -0.5536418 -0.36221156 48
-1.8369368 -0.5581041 -0.29767928 47
-2.2922621 -0.69600546 -0.28902826 6
-2.3244588 -0.70533842 -0.20917377 9
-2.3636429 -0.71677798 -0.12701364 14
-2.2804673 -0.69112027 -0.04092589 15
-2.1860676 -0.66209489 0.60136229 23
-2.372833 -0.71820849 0.56307638 12
-2.3997407 -0.72589576 0.47945368 11
-2.3671718 -0.71559292 0.38518602 11
-2.3644929 -0.71433282 0.29815546 12
-2.3922348 -0.72225827 0.21484523 11
-2.3598611 -0.7120347 0.12675282 11
-2.3484464 -0.70814329 0.041726127 15
-1.5121387 -0.45452654 -0.41254744 31
-1.8563988 -0.55765277 -0.43832293 47
-1.8230284 -0.54728162 -0.36221156 49
-1.8341435 -0.55026942 -0.29689795 48
-2.2946775 -0.68799973 -0.28902826 6
-2.3221354 -0.69579059 -0.208738 9
-2.356564 -0.70565838 -0.12649202 17
-2.282866 -0.68315572 -0.04092589 12
-2.1837382 -0.65307617 0.60006905 22
-2.3706579 -0.70852631 0.56195247 13
-2.3928542 -0.71470523 0.47754732 11
-2.3649232 -0.70591319 0.38440475 12
-2.3717279 -0.70749354 0.29876393 13
-2.3899679 -0.71248037 0.21441031 12
-2.3575468 -0.70236719 0.12649202 12
-2.3556952 -0.70136797 0.041812517 17
-1.5090859 -0.44787124 -0.4112542 29
-1.8536632 -0.54978395 -0.43719903 51
-1.8202219 -0.53951991 -0.36125836 53
-1.8360531 -0.54386377 -0.29689795 46
-2.2923059 -0.67857677 -0.28841975 6
-2.3197732 -0.6862675 -0.20830221 9
-2.3398595 -0.69176555 -0.12544879 12
-2.3044138 -0.68084896 -0.041274939 9
-2.1860044 -0.64544952 0.60006905 22
-2.3824625 -0.70300448 0.56420028 9
-2.4047499 -0.7091248 0.47945368 9
-2.3673728 -0.69765371 0.38440475 11
-2.3837044 -0.70201439 0.29998088 7
-2.4163322 -0.71116525 0.21658486 10
-2.3647745 -0.69554251 0.12675282 9
-2.3725183 -0.69737029 0.042071685 12
-1.5060049 -0.44124281 -0.40996096 29
-1.855571 -0.54331011 -0.43719903 52
-1.8220942 -0.53316283 -0.36125836 49
-1.8332003 -0.53606528 -0.29611665 49
-2.3184788 -0.67753142 -0.29146218 6
-2.3125923 -0.6753732 -0.20743066 10
-2.3230872 -0.67799807 -0.12440556 9
-2.3163753 -0.67560047 -0.041449465 9
-2.1836076 -0.63646352 0.5987758 21
-2.3895793 -0.69604641 0.56532419 5
-2.416636 -0.70346999 0.48136008 5
-2.3792775 -0.69214469 0.38596734 9
-2.3956711 -0.69646031 0.30119786 4
-2.4474995 -0.71106434 0.21919431 10
-2.4103446 -0.69981366 0.1291001 11
-2.4037454 -0.69744277 0.042590022 16
-1.5028964 -0.43464133 -0.40866768 24
-1.8527757 -0.53547686 -0.43607512 55
-1.8239441 -0.52679926 -0.36125836 51
-1.8350604 -0.52966297 -0.29611665 46
-2.335135 -0.67356056 -0.29328761 9
-2.3245077 -0.67005581 -0.20830221 10
-2.3062472 -0.66435611 -0.12336233 9
-2.3283279 -0.6702767 -0.041623987 10
-2.1858158 -0.62883747 0.5987758 23
-2.3685825 -0.68097007 0.55970466 2
-2.4049246 -0.69096398 0.47850055 3
-2.3769321 -0.68247235 0.38518602 12
nan nan nan 0
-2.4068739 -0.69015998 0.21528012 3
-2.4175727 -0.6927712 0.12936091 9
-2.386941 -0.68354267 0.042244464 3
-1.49976 -0.428067 -0.40737444 29
-1.8546336 -0.52900624 -0.43607512 53
-1.8210515 -0.5190838 -0.36030519 53
-1.8321483 -0.52190119 -0.29533535 50
-2.3613381 -0.67219937 -0.29633 10
-2.322042 -0.66057485 -0.20786645 10
-2.2989466 -0.65357095 -0.12284071 7
-2.3450799 -0.66624397 -0.041885771 11
-2.183351 -0.61988449 0.5974825 22
-2.4553118 -0.69663495 0.57993495 2
nan nan nan 0
-2.388803 -0.67686391 0.38674864 3
-2.4339008 -0.68918335 0.30545723 2
-2.452404 -0.69396037 0.21919431 2
nan nan nan 0
-2.413367 -0.68200415 0.042676415 2
-1.4965961 -0.42151988 -0.4060812 26
-1.8517791 -0.52120912 -0.43495122 53
-1.8228524 -0.51272404 -0.36030519 53
-1.8339589 -0.51550263 -0.29533535 46
-2.3636699 -0.66395253 -0.29633 10
-2.3195379 -0.65111911 -0.20743066 10
-2.3252516 -0.65228534 -0.12414475 5
-2.352205 -0.6594035 -0.041973036 10
-2.1855016 -0.61225939 0.5974825 23
-2.5093372 -0.70250827 0.59229791 2
nan nan nan 0
nan nan nan 0
nan nan nan 0
nan nan nan 0
-2.4463975 -0.68258625 0.13066494 2
-2.4157326 -0.67357582 0.042676415 2
-1.4934049 -0.41500002 -0.40478793 24
-1.8535872 -0.51474202 -0.43495122 54
-1.8199015 -0.50504541 -0.35935199 52
-1.8357472 -0.50909775 -0.29533535 44
-2.3564084 -0.65304697 -0.29511306 9
nan nan nan 0
-2.3563886 -0.65215588 -0.12570959 10
-2.3785839 -0.65785176 -0.042409342 4
-2.1876256 -0.60462689 0.5974825 24
-2.5305588 -0.69893306 0.59679353 2
nan nan nan 0
-2.4315567 -0.67067552 0.39299911 2
nan nan nan 0
nan nan nan 0
nan nan nan 0
nan nan nan 0
-1.4901865 -0.40850762 -0.40349469 26
-1.8506737 -0.50698143 -0.43382731 54
-1.8216532 -0.49868971 -0.35935199 52
-1.8327497 -0.50138354 -0.29455402 43
-2.3538861 -0.64350879 -0.29450455 9
-2.0020993 -0.54696125 -0.17823349 18
-2.3538334 -0.6426115 -0.12544879 8
-2.3615742 -0.6442818 -0.042060297 2
-2.1850631 -0.5957166 0.59618932 24
-2.5517857 -0.69521827 0.60128915 2
nan nan nan 0
nan nan nan 0
nan nan nan 0
nan nan nan 0
nan nan nan 0
nan nan nan 0
-1.4869409 -0.40204278 -0.40220144 22
-1.852432 -0.50051832 -0.43382731 53
-1.8186443 -0.49104846 -0.3583988 54
-1.8344887 -0.49498305 -0.29455402 40
-2.3465345 -0.63270432 -0.29328761 9
-1.9991869 -0.53867346 -0.17779772 17
-2.3512409 -0.63309294 -0.12518798 6
-2.2865679 -0.61525118 -0.040664103 11
-2.1871293 -0.58808565 0.59618932 23
nan nan nan 0
nan nan nan 0
nan nan nan 0
nan nan nan 0
nan nan nan 0
nan nan nan 0
nan nan nan 0
-1.4836683 -0.39560556 -0.4009082 27
-1.8494601 -0.49279463 -0.43270341 53
-1.8203473 -0.48469716 -0.3583988 55
-1.8314328 -0.48730659 -0.29377273 40
-2.324748 -0.61813319 -0.29024521 9
-2.1406591 -0.56878531 -0.19043529 14
-2.3148286 -0.61463058 -0.12310151 7
-2.3611825 -0.62649721 -0.041973036 3
-2.1891687 -0.58044749 0.59618932 24
-2.5659964 -0.67988223 0.60353696 2
nan nan nan 0
nan nan nan 0
nan nan nan 0
nan nan nan 0
nan nan nan 0
-2.4297357 -0.6410566 0.042762801 2
-1.4803691 -0.38919616 -0.39961493 24
-1.851169 -0.48633584 -0.43270341 53
-1.8220282 -0.47834003 -0.3583988 55
-1.8331227 -0.48091072 -0.29377273 43
-2.0532568 -0.53827882 -0.2555618 14
-2.1137214 -0.55373591 -0.18782063 13
-2.2638254 -0.59263682 -0.12023263 16
-2.31499 -0.60559916 -0.041100416 5
-2.1865087 -0.57158083 0.59489602 22
-2.5589259 -0.66845834 0.60128915 2
nan nan nan 0
nan nan nan 0
nan nan nan 0
nan nan nan 0
nan nan nan 0
-2.4367969 -0.63382977 0.042849194 2
-1.4770433 -0.38281459 -0.39832169 25
-1.848139 -0.47864959 -0.4315795 53
-1.8236868 -0.47197708 -0.3583988 54
-1.8300089 -0.47327247 -0.2929914 39
-2.0214884 -0.52241611 -0.25130248 19
-2.1735144 -0.56129968 -0.19304997 12
-2.2126975 -0.5710066 -0.11736374 25
-2.229954 -0.57504463 -0.039529696 28
-2.1884906 -0.56394506 0.59489602 24
-2.5753984 -0.66316676 0.60466087 2
nan nan nan 0
nan nan nan 0
nan nan nan 0
nan nan nan 0
nan nan nan 0
-2.4293094 -0.62283677 0.042676415 2
-1.4690113 -0.37526557 -0.39573517 24
-1.8497986 -0.47219548 -0.4315795 55
-1.8205673 -0.46439517 -0.35744563 49
-1.8316498 -0.46688166 -0.2929914 40
-2.0329182 -0.51780653 -0.25251943 13
-2.1995959 -0.5598523 -0.19522887 12
-2.2195163 -0.56451017 -0.11762454 18
-2.2077217 -0.56110007 -0.03909339 34
-2.1904457 -0.55630237 0.59489602 23
-2.5588081 -0.64937907 0.60016519 2
nan nan nan 0
nan nan nan 0
nan nan nan 0
nan nan nan 0
nan nan nan 0
-2.4653971 -0.62292576 0.043281138 2
-1.4656286 -0.36895642 -0.39444193 25
-1.8514355 -0.46573555 -0.4315795 59
-1.8221772 -0.45803735 -0.35744563 53
-1.8332683 -0.46048516 -0.2929914 38
-2.1213565 -0.53245437 -0.26347208 8
-2.2353559 -0.56065315 -0.19827931 12
-2.2117865 -0.55433136 -0.11710292 33
-2.2193661 -0.55581927 -0.039267913 31
-2.1923742 -0.54865283 0.59489602 22
-2.5894182 -0.64753503 0.60690868 2
nan nan nan 0
nan nan nan 0
nan nan nan 0
nan nan nan 0
nan nan nan 0
-2.4287469 -0.60465419 0.042590022 2
-1.4622198 -0.36267546 -0.39314869 26
-1.848321 -0.45809793 -0.4304556 57
-1.8190006 -0.45049408 -0.35649243 54
-1.8300705 -0.45289665 -0.2922101 37
nan nan nan 0
-2.3098326 -0.57077014 -0.20481598 12
-2.1943176 -0.54181957 -0.11605969 20
-2.2212925 -0.54806888 -0.039267913 25
-2.1895864 -0.53984046 0.59360272 22
-2.5490875 -0.62800324 0.59679353 2
nan nan nan 0
nan nan nan 0
nan nan nan 0
nan nan nan 0
nan nan nan 0
-2.4066691 -0.58979863 0.042158078 3
-1.4588472 -0.35616815 -0.39185542 25
-1.8499876 -0.45132044 -0.4304556 58
-1.8206394 -0.44382408 -0.35649243 52
-1.8317183 -0.4461861 -0.2922101 36
-2.1395788 -0.52078193 -0.26529753 3
-2.3022292 -0.559946 -0.20394443 4
-2.1817329 -0.53023577 -0.11527727 20
-2.2378604 -0.54346305 -0.039529696 32
-2.1915503 -0.53181159 0.59360272 23
-2.5182283 -0.61061943 0.5889262 2
nan nan nan 0
nan nan nan 0
nan nan nan 0
nan nan nan 0
nan nan nan 0
-2.2775016 -0.54972345 0.039825562 26
-1.4506897 -0.34881538 -0.38926893 25
-1.8468144 -0.44372186 -0.42933169 57
-1.817405 -0.4363203 -0.35553923 52
-1.8332646 -0.43978947 -0.2922101 36
-2.0979483 -0.5028984 -0.25982118 5
-2.2799499 -0.54610515 -0.20176555 4
-2.1398659 -0.51215667 -0.11292999 29
-2.2494681 -0.53797376 -0.039704222 32
-2.1886961 -0.52303588 0.59230953 22
-2.5345609 -0.60522014 0.59229791 2
nan nan nan 0
nan nan nan 0
nan nan nan 0
nan nan nan 0
nan nan nan 0
-2.2453601 -0.533678 0.039220832 9
-1.4471985 -0.34263664 -0.38797569 28
-1.848352 -0.43727255 -0.42933169 57
-1.8189168 -0.42997375 -0.35553923 54
-1.8299823 -0.43225226 -0.2914288 35
-2.0996909 -0.49557209 -0.25982118 6
-2.2624502 -0.53356993 -0.20002241 10
-2.1513612 -0.50697458 -0.11345161 27
-2.2610643 -0.53240997 -0.039878745 27
-2.1905084 -0.51539272 0.59230953 23
-2.512944 -0.59079403 0.58667839 2
nan nan nan 0
nan nan nan 0
nan nan nan 0
nan nan nan 0
nan nan nan 0
-2.26668 -0.53039306 0.03956639 13
-1.4436818 -0.33648658 -0.38668242 27
-1.8498671 -0.4308179 -0.42933169 58
-1.815626 -0.42250943 -0.35458606 53
-1.83148 -0.42586181 -0.2914288 34
nan nan nan 0
nan nan nan 0
-2.1531174 -0.49946183 -0.11345161 16
-2.3067405 -0.53467375 -0.040664103 20
-2.1875887 -0.50665355 0.59101623 23
-2.5387242 -0.587511 0.59229791 2
nan nan nan 0
nan nan nan 0
nan nan nan 0
nan nan nan 0
nan nan nan 0
-2.2636461 -0.52135563 0.039480001 15
-1.4354326 -0.32928532 -0.38409594 26
-1.846611 -0.42326957 -0.42820778 57
-1.8170899 -0.41616914 -0.35458606 56
-1.8329555 -0.41946614 -0.2914288 34
-2.0643959 -0.47205144 -0.25495335 20
-2.1447241 -0.49002567 -0.18912795 6
-2.1743197 -0.49638838 -0.11449484 10
-2.3085926 -0.52661848 -0.040664103 13
-2.1893437 -0.49901435 0.59101623 23
-2.5407598 -0.57864565 0.59229791 2
nan nan nan 0
nan nan nan 0
nan nan nan 0
nan nan nan 0
nan nan nan 0
-2.3239596 -0.52671117 0.040516675 3
-1.4318619 -0.32320923 -0.38280267 26
-1.8480772 -0.41682112 -0.42820778 55
-1.8137431 -0.40874466 -0.35363284 54
-1.8344083 -0.4130654 -0.2914288 34
-2.0563474 -0.46266374 -0.25373638 10
-2.1318426 -0.47925872 -0.18782063 4
-2.2150135 -0.49755019 -0.11658131 14
-2.1933477 -0.49228135 -0.038569819 14
-2.1910725 -0.49136904 0.59101623 25
-2.547518 -0.57083845 0.59342182 2
nan nan nan 0
nan nan nan 0
nan nan nan 0
nan nan nan 0
nan nan nan 0
-2.3989751 -0.53491575 0.041812517 20
-1.4282662 -0.3171621 -0.38150942 25
-1.8447645 -0.40931225 -0.42708388 57
-1.8151588 -0.40241104 -0.35363284 55
-1.8310175 -0.40559149 -0.29064748 34
-2.0288765 -0.44904816 -0.2500855 5
-2.1967278 -0.48579621 -0.19348575 7
-2.2167366 -0.48981532 -0.11658131 15
-2.1559989 -0.47599992 -0.037871718 9
-2.1927745 -0.4837178 0.59101623 24
-2.5494952 -0.56194246 0.59342182 2
nan nan nan 0
nan nan nan 0
nan nan nan 0
nan nan nan 0
nan nan nan 0
-2.3666456 -0.51904184 0.04120779 32
-1.424646 -0.31114402 -0.38021615 25
-1.846182 -0.40287033 -0.42708388 54
-1.8165525 -0.39607248 -0.35363284 53
-1.832422 -0.39919758 -0.29064748 32
-2.088623 -0.45462984 -0.25738728 6
-2.2373474 -0.48659363 -0.19697198 6
-2.2135539 -0.48101422 -0.11632051 15
-2.1576474 -0.4684712 -0.037871718 5
-2.1944492 -0.47606063 0.59101623 22
-2.5371568 -0.54994345 0.5900501 2
nan nan nan 0
nan nan nan 0
nan nan nan 0
nan nan nan 0
-2.4729054 -0.53375757 0.13014333 2
-2.368443 -0.51077759 0.04120779 27
-1.416279 -0.30414104 -0.37762964 23
-1.8475771 -0.39642349 -0.42708388 54
-1.8131248 -0.38870025 -0.35267967 52
-1.8338042 -0.39279881 -0.29064748 30
-2.0804915 -0.44525918 -0.2561703 5
-2.2487741 -0.48086396 -0.19784354 4
-2.2103362 -0.47224122 -0.11605969 17
-2.1886044 -0.46719879 -0.038395293 17
-2.1960979 -0.46839768 0.59101623 24
-2.5914764 -0.55225372 0.602413 2
nan nan nan 0
nan nan nan 0
nan nan nan 0
nan nan nan 0
-2.4454467 -0.51890367 0.12857848 2
-2.3702116 -0.50250703 0.04120779 8
-1.4126064 -0.2981979 -0.3763364 23
-1.8489496 -0.38997179 -0.42708388 56
-1.8144705 -0.38236892 -0.35267967 52
-1.8399968 -0.38741276 -0.2914288 29
-2.1014593 -0.44208086 -0.25860423 5
-2.2553134 -0.47403589 -0.19827931 6
-2.1924248 -0.46041802 -0.11501645 20
-2.2244704 -0.46674237 -0.039006125 27
-2.1977193 -0.460729 0.59101623 22
-2.5504715 -0.53421509 0.59229791 2
nan nan nan 0
nan nan nan 0
nan nan nan 0
nan nan nan 0
-2.3983626 -0.50017047 0.12597041 2
-2.2838564 -0.47587454 0.03965278 4
-1.4089096 -0.29228404 -0.37504312 21
-1.8455288 -0.38252658 -0.42595997 58
-1.8157942 -0.37603289 -0.35267967 55
-1.841338 -0.38098758 -0.2914288 29
-2.1564505 -0.44579446 -0.26529753 6
-2.2667103 -0.4681755 -0.19915086 9
-2.1646779 -0.4467074 -0.11345161 55
-2.1918125 -0.4519082 -0.038395293 17
-2.1945837 -0.45208025 0.58972305 23
-2.5284603 -0.5203982 0.58667839 2
nan nan nan 0
nan nan nan 0
nan nan nan 0
nan nan nan 0
-2.4490099 -0.50181866 0.12857848 2
-2.1728573 -0.44483805 0.037665822 32
-1.400456 -0.28543511 -0.37245664 21
-1.8468529 -0.37608218 -0.42595997 56
-1.8170956 -0.3696923 -0.35267967 54
-1.8426567 -0.37455785 -0.2914288 32
-2.196902 -0.44616619 -0.27016535 12
-2.2536864 -0.45728895 -0.19784354 12
-2.1857986 -0.44311681 -0.11449484 50
-2.1590784 -0.43730769 -0.037784457 18
nan nan nan 0
nan nan nan 0
nan nan nan 0
nan nan nan 0
nan nan nan 0
nan nan nan 0
nan nan nan 0
nan nan nan 0
-1.3967568 -0.27935308 -0.3711634 21
-1.8434414 -0.36835593 -0.42483607 56
-1.8136252 -0.36206892 -0.35172647 54
-1.844017 -0.36780164 -0.2914288 32
-2.1498508 -0.42841205 -0.26408052 8
-2.2406919 -0.44610789 -0.1965362 10
-2.197202 -0.4370507 -0.11501645 19
-2.1361499 -0.42451906 -0.037348147 14
-2.1740754 -0.43166167 0.58325672 7
nan nan nan 0
nan nan nan 0
-1.5635464 -0.30959052 0.24611278 5
-1.5759653 -0.3117637 0.19227985 8
nan nan nan 0
-1.546296 -0.30533352 0.080328956 17
-1.4942288 -0.29478133 0.025657682 106
-1.392984 -0.27354509 -0.36987013 22
-1.844716 -0.36191887 -0.42483607 56
-1.814878 -0.35573599 -0.35172647 54
-1.8452897 -0.36136258 -0.2914288 32
-2.0782757 -0.40661153 -0.25495335 5
-2.2617891 -0.44210583 -0.19827931 9
-2.2085156 -0.43129241 -0.11553808 19
-2.0934584 -0.40844405 -0.036562789 10
nan nan nan 0
nan nan nan 0
nan nan nan 0
nan nan nan 0
-1.5819157 -0.30720672 0.19288832 11
-1.5729673 -0.3051841 0.13656153 16
-1.5081367 -0.29233268 0.078242488 24
-1.5148809 -0.29336563 0.02600324 102
-1.3844452 -0.26685274 -0.36728364 22
-1.8411838 -0.35455611 -0.42371216 54
-1.8161087 -0.3493987 -0.35172647 52
-1.84654 -0.35491914 -0.2914288 32
-2.0553136 -0.39467502 -0.25191092 4
-2.1410246 -0.41074643 -0.18738484 31
-2.2345276 -0.42828026 -0.11684212 19
-2.0850513 -0.39925361 -0.036388267 11
-1.5508505 -0.29668224 0.41254744 4
-1.5928347 -0.30442575 0.36526912 9
-1.5899984 -0.30359602 0.30692664 8
-1.5802228 -0.30144364 0.2484567 17
-1.5732281 -0.29982477 0.19167136 21
-1.534878 -0.29223841 0.13308226 20
-1.5189584 -0.28893265 0.078764103 15
-1.5306298 -0.29087591 0.026262408 103
-1.3901141 -0.26291606 -0.36857688 19
-1.8424102 -0.34812704 -0.42371216 54
-1.8124943 -0.34214669 -0.35077327 54
-1.8429145 -0.34755608 -0.29064748 33
-2.2371287 -0.42149681 -0.2744247 15
-2.1326554 -0.4014276 -0.18651327 33
-2.2261949 -0.41863209 -0.11632051 17
-2.0864322 -0.39197296 -0.036388267 8
nan nan nan 0
-1.5843104 -0.29706809 0.36302131 19
-1.5813997 -0.29623657 0.30502024 15
-1.5618484 -0.29229197 0.24533147 19
-1.5498737 -0.28977099 0.18862896 20
-1.5652668 -0.29236624 0.13569172 17
-1.5297748 -0.28546059 0.079285726 25
-1.5316358 -0.28553125 0.026262408 95
-1.3910233 -0.25806206 -0.36857688 13
-1.8388237 -0.34080583 -0.42258826 54
-1.8136774 -0.33581781 -0.35077327 54
-1.8441164 -0.34112099 -0.29064748 31
-2.3264303 -0.42991853 -0.28537738 11
-2.1340435 -0.39398077 -0.18651327 27
-2.2227318 -0.409953 -0.11605969 16
-2.1271195 -0.39193475 -0.037086364 10
-1.557634 -0.28672248 0.41384071 17
-1.5565876 -0.28624895 0.35627785 18
-1.5631139 -0.2871671 0.30120748 17
-1.572574 -0.28862137 0.24689408 18
-1.5557572 -0.28525418 0.18923745 18
-1.5564789 -0.28510574 0.13482189 22
-1.5356735 -0.28101775 0.079546534 18
-1.5326231 -0.28018311 0.026262408 38
nan nan nan 0
-1.8400023 -0.33438507 -0.42258826 54
-1.8100092 -0.3286081 -0.34982011 54
-1.8404366 -0.33380041 -0.28986615 30
-2.3279169 -0.42179516 -0.28537738 12
-2.1403072 -0.38741639 -0.18694907 20
-2.2192359 -0.40130323 -0.11579888 20
-2.1924298 -0.39606071 -0.038220771 9
-1.5396131 -0.27785245 0.40866768 16
-1.5671667 -0.28254262 0.35852566 15
-1.573768 -0.28344914 0.30311388 18
-1.5687113 -0.28225574 0.24611278 17
-1.5567435 -0.27982184 0.18923745 21
-1.5721724 -0.28231195 0.13612662 21
-1.5415598 -0.27653715 0.079807341 17
-1.5335917 -0.27483153 0.026262408 25
nan nan nan 0
-1.8411583 -0.32796025 -0.42258826 54
-1.8111453 -0.32228798 -0.34982011 56
-1.8415906 -0.32737407 -0.28986615 30
-2.3244886 -0.41279888 -0.28476888 13
-2.1367421 -0.37907284 -0.18651327 22
-2.2157063 -0.39268282 -0.11553808 22
-2.2331803 -0.39537767 -0.038918864 10
-1.5358176 -0.27163532 0.40737444 17
-1.5633457 -0.27622274 0.35740176 16
-1.5747479 -0.27795395 0.30311388 22
-1.5696871 -0.27677819 0.24611278 17
-1.5625983 -0.27524704 0.18984592 17
-1.5731483 -0.27682233 0.13612662 22
-1.5474335 -0.27201891 0.080068149 18
-1.5394657 -0.27034134 0.026348798 24
-1.8266084 -0.31912273 -0.48626286 32
-1.8374923 -0.32069376 -0.42146435 56
-1.8122592 -0.31596395 -0.34982011 54
-1.8427221 -0.32094368 -0.28986615 28
-2.3308048 -0.40553308 -0.28537738 13
-2.1527743 -0.37417078 -0.18782063 19
-2.2121444 -0.38409203 -0.11527727 20
-2.3182836 -0.40210405 -0.040402319 10
-1.5462743 -0.26792181 0.40996096 16
-1.5643004 -0.27076396 0.35740176 16
-1.5757086 -0.27245533 0.30311388 16
-1.5657771 -0.27045667 0.24533147 16
-1.5635496 -0.26979089 0.18984592 16
-1.5790137 -0.27217543 0.13656153 20
-1.5483736 -0.26661569 0.080068149 18
-1.5404 -0.26496592 0.026348798 21
-1.8419932 -0.31518856 -0.49014261 38
-1.8386005 -0.31427777 -0.42146435 59
-1.8085128 -0.30880988 -0.34886691 58
-1.8438312 -0.31450945 -0.28986615 31
-2.3322062 -0.39739457 -0.28537738 13
-2.1737087 -0.36999717 -0.18956374 17
-2.2134717 -0.37636787 -0.11527727 20
-2.3147442 -0.39317212 -0.040315058 12
-1.5376766 -0.26090676 0.40737444 15
-1.5604324 -0.26448771 0.35627785 16
-1.57665 -0.26695344 0.30311388 16
-1.5667115 -0.26498944 0.24533147 16
-1.5644819 -0.26433146 0.18984592 17
-1.5799541 -0.266662 0.13656153 20
-1.5492947 -0.26120925 0.080068149 18
-1.5413156 -0.25958732 0.026348798 23
-1.8430822 -0.30875686 -0.49014261 51
-1.8396865 -0.30785793 -0.42146435 54
-1.8095797 -0.30249515 -0.34886691 55
-1.8449177 -0.30807137 -0.28986615 30
-2.338474 -0.39006779 -0.28598583 13
-2.1897271 -0.36486328 -0.19087109 20
-2.2246227 -0.37027878 -0.11579888 15
-2.2470613 -0.3736105 -0.03909339 8
-1.5385778 -0.25553769 0.40737444 15
-1.5613462 -0.25903916 0.35627785 15
-1.5775722 -0.26144829 0.30311388 15
-1.5676271 -0.25951898 0.24533147 15
-1.565395 -0.25886878 0.18984592 15
-1.5808754 -0.26114529 0.13656153 18
-1.5501971 -0.25579962 0.080068149 18
-1.5422565 -0.25393635 0.026348798 21
-1.8442016 -0.3019996 -0.49014261 53
-1.8408024 -0.30111307 -0.42146435 55
-1.8106763 -0.29586065 -0.34886691 51
-1.8509088 -0.30210286 -0.29064748 36
-2.3300917 -0.379897 -0.28476888 13
-2.2107143 -0.36003768 -0.1926142 15
-2.2358217 -0.36372611 -0.11632051 18
-2.1398561 -0.34773096 -0.037173621 5
-1.5395042 -0.24989678 0.40737444 15
-1.5622852 -0.25331482 0.35627785 14
-1.5785198 -0.25566444 0.30311388 14
-1.5685678 -0.2537716 0.24533147 15
-1.561434 -0.25233781 0.18923745 15
-1.5818219 -0.25534934 0.13656153 17
-1.5511242 -0.25011614 0.080068149 16
-1.5381979 -0.24775636 0.026262408 21
-1.8452444 -0.29556027 -0.49014261 55
-1.8418424 -0.29468563 -0.42146435 54
-1.811698 -0.28953841 -0.34886691 54
-1.851952 -0.29564017 -0.29064748 35
-2.1745744 -0.34675345 -0.26529753 21
-2.2316334 -0.35545263 -0.19435731 16
-2.2469399 -0.35748854 -0.11684212 17
-2.0768723 -0.33005911 -0.036039218 32
-1.540367 -0.24452139 0.40737444 14
-1.5631598 -0.24785988 0.35627785 14
-1.5745548 -0.24938497 0.30216068 14
-1.5694441 -0.24829473 0.24533147 14
-1.5623052 -0.24688587 0.18923745 15
-1.5827036 -0.24982618 0.13656153 17
-1.5519879 -0.24470019 0.080068149 17
-1.5390534 -0.24238554 0.026262408 19
-1.8462648 -0.28911734 -0.49014261 56
-1.8476732 -0.28900751 -0.42258826 54
-1.8175471 -0.2839703 -0.34982011 55
-1.8578522 -0.28993535 -0.2914288 37
-2.1659639 -0.33763185 -0.26408052 12
-2.2328606 -0.3476606 -0.19435731 14
-2.2333722 -0.34734103 -0.11605969 26
-2.1027117 -0.32664442 -0.036475528 13
-1.5412112 -0.23914301 0.40737444 14
-1.5592011 -0.24165572 0.35515395 13
-1.5754157 -0.24388725 0.30216068 14
-1.5703012 -0.24281484 0.24533147 14
-1.5631576 -0.24143088 0.18923745 14
-1.5835661 -0.24430001 0.13656153 17
-1.5528325 -0.23928124 0.080068149 17
-1.5349491 -0.23625126 0.026176019 20
-1.8520371 -0.28340152 -0.49143586 50
-1.8486707 -0.28255618 -0.42258826 50
-1.8185272 -0.27762416 -0.34982011 39
-1.858853 -0.28344846 -0.2914288 37
-2.201473 -0.3353 -0.2683399 14
-2.1995902 -0.33462045 -0.19130686 16
-2.2197618 -0.33729273 -0.11527727 25
-2.1631508 -0.32830444 -0.03752267 11
-1.5420367 -0.23376171 0.40737444 14
-1.560035 -0.23621163 0.35515395 13
-1.5714043 -0.23765256 0.30120748 14
-1.5711392 -0.23733197 0.24533147 14
-1.5639907 -0.23597296 0.18923745 14
-1.5844091 -0.23877084 0.13656153 17
-1.5536584 -0.23385939 0.080068149 16
-1.5357642 -0.23089182 0.026176019 20
-1.8577919 -0.27764887 -0.4927291 76
-1.8496457 -0.27610135 -0.42258826 57
-1.8243399 -0.27199844 -0.35077327 62
-1.8647157 -0.27768552 -0.2922101 39
-2.20263 -0.32761338 -0.2683399 14
-2.2105989 -0.32840425 -0.19217841 14
-2.2110476 -0.32807651 -0.11475565 26
nan nan nan 0
-1.5380654 -0.22767036 0.4060812 14
-1.5608501 -0.23076466 0.35515395 13
-1.5722243 -0.23216589 0.30120748 13
-1.5719579 -0.23184623 0.24533147 14
-1.5648049 -0.23051217 0.18923745 14
-1.585233 -0.23323877 0.13656153 16
-1.5544653 -0.22843467 0.080068149 16
-1.5316147 -0.22480361 0.026089629 20
-1.8587496 -0.27116227 -0.4927291 80
-1.8602406 -0.27104816 -0.42483607 28
-1.8301355 -0.26633549 -0.35172647 58
-1.8705609 -0.27188513 -0.2929914 49
-2.1988492 -0.31920978 -0.26773143 13
-2.2018728 -0.31925637 -0.19130686 12
-2.1973543 -0.31820962 -0.11397322 18
-2.1851809 -0.31605738 -0.037871718 10
-1.5388507 -0.22230011 0.4060812 13
-1.5616461 -0.22531489 0.35515395 13
-1.5730252 -0.22667639 0.30120748 14
-1.5678695 -0.22565414 0.24455015 14
-1.5606878 -0.22434247 0.18862896 14
-1.5860374 -0.22770387 0.13656153 17
-1.5552531 -0.2230072 0.080068149 16
-1.5323901 -0.21945591 0.026089629 20
-1.8644665 -0.2653529 -0.49402237 71
-1.8515282 -0.26318181 -0.42258826 19
-1.831054 -0.25994548 -0.35172647 15
-1.8812779 -0.26674059 -0.29455402 38
-2.2097774 -0.31292412 -0.26894841 13
-2.2079058 -0.31226599 -0.19174264 4
-2.1935074 -0.30983913 -0.11371242 13
-1.5229414 -0.21484868 -0.02617861 4
-1.5396173 -0.21692719 0.4060812 13
-1.5624231 -0.21986233 0.35515395 13
-1.5738068 -0.22118412 0.30120748 13
-1.5686476 -0.22017987 0.24455015 13
-1.5614613 -0.21889329 0.18862896 14
-1.5868226 -0.22216615 0.13656153 16
-1.551077 -0.21688554 0.079807341 16
-1.5331467 -0.21410555 0.026089629 19
-1.8510294 -0.25685155 -0.49014261 59
nan nan nan 0
-1.7784687 -0.24615021 -0.34124142 6
-1.8675212 -0.25814337 -0.2922101 11
-2.1862755 -0.30181524 -0.26590598 9
nan nan nan 0
-2.1846826 -0.30081823 -0.11319079 13
-1.6524504 -0.22723909 -0.028447421 109
-1.5355802 -0.21089442 0.40478793 13
-1.563181 -0.21440712 0.35515395 13
-1.5745693 -0.21568915 0.30120748 13
-1.5694066 -0.2147029 0.24455015 13
-1.5622159 -0.21344143 0.18862896 15
-1.5875883 -0.21662578 0.13656153 17
-1.5518246 -0.21146993 0.079807341 16
-1.5338846 -0.20875256 0.026089629 19
-1.8375559 -0.24844731 -0.48626286 55
-1.549142 -0.20917688 -0.35178223 6
nan nan nan 0
nan nan nan 0
nan nan nan 0
nan nan nan 0
-2.1659238 -0.29053509 -0.11214756 4
-1.5144942 -0.20288384 -0.026004085 5
-1.5363071 -0.20553295 0.40478793 14
-1.5639199 -0.2089493 0.35515395 13
-1.5801778 -0.21084073 0.30216068 13
-1.5701466 -0.20922336 0.24455015 14
-1.5580319 -0.20733234 0.18802048 15
-1.5833973 -0.21042654 0.13612662 16
-1.5525533 -0.20605177 0.079807341 16
-1.5346041 -0.20339702 0.026089629 18
-1.8288348 -0.24077067 -0.48367634 55
-1.5160494 -0.19932251 -0.3439149 9
-1.4346199 -0.18836185 -0.27356502 6
nan nan nan 0
-1.524017 -0.19955833 -0.18376112 4
-1.5097271 -0.1974192 -0.12986206 4
nan nan nan 0
-1.569723 -0.20470724 -0.026963966 10
-1.5370151 -0.200169 0.40478793 14
-1.5646398 -0.20348892 0.35515395 13
-1.5809041 -0.20532359 0.30216068 13
-1.5659698 -0.20310606 0.24376884 13
-1.5587462 -0.20189252 0.18802048 14
-1.5841221 -0.20489816 0.13612662 16
-1.5532632 -0.20063107 0.079807341 16
-1.5303468 -0.19739948 0.02600324 19
-1.8200827 -0.23315799 -0.48108983 59
-1.5119032 -0.19341108 -0.34279102 13
-1.4352686 -0.18335293 -0.27356502 9
-1.4684142 -0.18732677 -0.22814263 9
-1.4951661 -0.1904743 -0.18011025 5
-1.4955837 -0.19026226 -0.12855473 4
-1.5388199 -0.19548969 -0.079024911 3
-1.5307521 -0.1941933 -0.026265871 6
-1.532913 -0.1941956 0.40349469 13
-1.5653405 -0.19802606 0.35515395 13
-1.5767416 -0.1991888 0.30120748 13
-1.5666692 -0.19763856 0.24376884 14
-1.5545176 -0.19582997 0.18741199 14
-1.5848277 -0.19936728 0.13612662 17
-1.553954 -0.19520797 0.079807341 15
-1.5310264 -0.19205636 0.02600324 21
-1.8160925 -0.22620627 -0.47979656 65
-1.5077344 -0.18753102 -0.34166712 15
-1.4261582 -0.17713186 -0.27165866 12
nan nan nan 0
-1.500747 -0.18586405 -0.18071872 12
-1.5061252 -0.18626322 -0.12942629 11
-1.549404 -0.19134098 -0.079546534 8
-1.5214974 -0.18762511 -0.026091347 4
-1.5335815 -0.18884353 0.40349469 13
-1.5660223 -0.19256081 0.35515395 13
-1.5774273 -0.19368371 0.30120748 13
-1.5673496 -0.19216865 0.24376884 13
-1.5551916 -0.19040251 0.18741199 14
-1.5855139 -0.19383401 0.13612662 16
-1.5496697 -0.18917741 0.079546534 16
-1.5316875 -0.18671092 0.02600324 21
-1.8024864 -0.21812484 -0.4759168 47
-1.4938692 -0.1805135 -0.3382954 13
-1.4316409 -0.17274053 -0.27261186 13
-1.4745892 -0.17766157 -0.22892395 16
-1.5063139 -0.1812171 -0.18132719 18
-1.5018209 -0.18041065 -0.1289905 17
-1.5500625 -0.18593138 -0.079546534 14
-1.522143 -0.18231294 -0.026091347 4
-1.5342313 -0.1834892 0.40349469 13
-1.5618472 -0.18651548 0.35403004 13
-1.5780938 -0.18817629 0.30120748 12
-1.5680109 -0.18669643 0.24376884 13
-1.5558468 -0.1849727 0.18741199 14
-1.5861809 -0.18829834 0.13612662 17
-1.5503206 -0.1837669 0.079546534 16
-1.5323298 -0.18136318 0.02600324 20
-1.7792526 -0.20901413 -0.46945056 34
-1.4848125 -0.17416267 -0.33604759 13
-1.4322351 -0.16774212 -0.27261186 14
-1.4506748 -0.16964512 -0.2250174 13
-1.4872198 -0.17365567 -0.17889327 15
-1.4875989 -0.17343676 -0.12768316 15
-1.5308632 -0.17821005 -0.078503296 14
-1.5178044 -0.17642137 -0.026004085 4
-1.5348625 -0.17813262 0.40349469 13
-1.5624887 -0.18106247 0.35403004 13
-1.578741 -0.18266657 0.30120748 13
-1.563747 -0.18065514 0.24298753 14
-1.5564831 -0.17954066 0.18741199 14
-1.5818802 -0.18219049 0.13569172 17
-1.545992 -0.17778373 0.079285726 16
-1.5329536 -0.17601326 0.02600324 21
-1.7463797 -0.19897483 -0.46039781 27
-1.4805706 -0.16842796 -0.33492368 13
-1.4328119 -0.16274168 -0.27261186 14
-1.4561652 -0.16513678 -0.2257987 13
-1.4828856 -0.16790487 -0.17828478 12
-1.4782964 -0.16712393 -0.12681161 12
-1.531476 -0.17286526 -0.078503296 15
-1.518411 -0.17112218 -0.026004085 4
-1.5354749 -0.17277387 0.40349469 13
-1.5631112 -0.17560726 0.35403004 13
-1.5744913 -0.17660749 0.30025432 13
-1.5643681 -0.17519553 0.24298753 14
-1.5571003 -0.17410643 0.18741199 15
-1.5825065 -0.17666757 0.13569172 17
-1.5466032 -0.17238611 0.079285726 16
-1.5335587 -0.17066118 0.02600324 20
-1.6942561 -0.1870476 -0.446172 23
-1.4763068 -0.16272497 -0.33379978 13
-1.4333712 -0.15773924 -0.27261186 13
-1.4616418 -0.16059217 -0.22658001 13
-1.4735962 -0.16164531 -0.17706783 12
-1.468968 -0.16087817 -0.12594004 13
-1.5221428 -0.1664329 -0.077981681 11
-1.518999 -0.16582088 -0.026004085 5
-1.5360687 -0.167413 0.40349469 14
-1.5637146 -0.17014991 0.35403004 13
-1.575098 -0.17111041 0.30025432 13
-1.56988 -0.17026633 0.24376884 14
-1.5576986 -0.16867007 0.18741199 15
-1.5781615 -0.17060716 0.1352568 17
-1.5471956 -0.16698641 0.079285726 16
-1.5291746 -0.16477144 0.02591685 22
-1.6997011 -0.18164566 -0.4474653 24
-1.4720212 -0.15705384 -0.33267587 13
-1.433913 -0.15273488 -0.27261186 13
-1.4572825 -0.15496688 -0.2257987 13
-1.4692163 -0.15597661 -0.17645934 12
-1.4645674 -0.15522456 -0.12550427 13
-1.5227145 -0.16111863 -0.077981681 12
-1.5195687 -0.16051757 -0.026004085 5
-1.5366436 -0.1620501 0.40349469 13
-1.5594537 -0.16418038 0.35290614 13
-1.575686 -0.16561127 0.30025432 13
-1.5655529 -0.16427001 0.24298753 14
-1.5582778 -0.16323166 0.18741199 14
-1.5787474 -0.16509733 0.1352568 17
-1.5477691 -0.16158468 0.079285726 16
-1.5297405 -0.15943262 0.02591685 23
-1.700325 -0.1757115 -0.4474653 15
-1.4725605 -0.15191457 -0.33267587 13
-1.4344375 -0.14772865 -0.27261186 13
-1.4578147 -0.14987907 -0.2257987 13
-1.469752 -0.15084712 -0.17645934 12
-1.4601452 -0.14960362 -0.12506849 12
-1.5183003 -0.15529431 -0.077720873 12
-1.5250931 -0.15572011 -0.026091347 5
-1.5372 -0.15668522 0.40349469 13
-1.5600173 -0.15873589 0.35290614 13
-1.5762544 -0.16011009 0.30025432 13
-1.5661169 -0.15880421 0.24298753 14
-1.558838 -0.15779126 0.18741199 15
-1.5743582 -0.15908468 0.13482189 18
-1.5483236 -0.15618096 0.079285726 17
-1.5302876 -0.15409185 0.02591685 23
-1.6913159 -0.16881576 -0.44487876 20
-1.4730818 -0.14677344 -0.33267587 14
-1.4349444 -0.14272064 -0.27261186 13
-1.4534144 -0.1443015 -0.2250174 13
-1.4653308 -0.14522636 -0.17585087 12
-1.4606586 -0.14450586 -0.12506849 12
-1.5188332 -0.14999349 -0.077720873 12
-1.5256273 -0.1503956 -0.026091347 5
-1.532931 -0.15084545 0.40220144 14
-1.5605619 -0.15328944 0.35290614 13
-1.5768037 -0.15460695 0.30025432 13
-1.5666617 -0.15333647 0.24298753 14
-1.5593795 -0.15234894 0.18741199 15
-1.5749038 -0.15358816 0.13482189 18
-1.5488594 -0.15077534 0.079285726 16
-1.5258403 -0.1482657 0.025830461 26
-1.6870872 -0.16244802 -0.44358552 25
-1.4735851 -0.14163055 -0.33267587 14
-1.4354339 -0.13771087 -0.27261186 13
-1.4539093 -0.13922727 -0.2250174 13
-1.4658289 -0.14011051 -0.17585087 12
-1.4611541 -0.13940632 -0.12506849 12
-1.5193474 -0.14469087 -0.077720873 12
-1.526143 -0.14506926 -0.026091347 6
-1.5334481 -0.1454936 0.40220144 13
-1.5610875 -0.14784111 0.35290614 13
-1.5724472 -0.14864004 0.29930112 13
-1.5671873 -0.14786686 0.24298753 14
-1.5599017 -0.14690477 0.18741199 15
-1.5754305 -0.1480898 0.13482189 17
-1.5493761 -0.14536792 0.079285726 18
-1.5263735 -0.14267224 0.025830461 26
-1.682862 -0.15581815 -0.44229224 30
-1.4740944 -0.13622864 -0.33267587 14
-1.4359289 -0.13244882 -0.27261186 14
-1.4544098 -0.13389748 -0.2250174 12
