# .PCD v0.7 - Point Cloud Data file format
VERSION 0.7
FIELDS x y z intensity
SIZE 4 4 4 4
TYPE F F F F
COUNT 1 1 1 1
WIDTH 1273
HEIGHT 1
VIEWPOINT 0 0 0 1 0 0 0
POINTS 1273
DATA ascii
-0.050268855 -1.573341 -0.4112542 21
-0.051130686 -1.5916116 -0.35852566 103
-0.051148035 -1.5835394 -0.30025432 87
-0.051573656 -1.5881262 -0.24533147 84
-0.051613566 -1.5808499 -0.18923745 85
-0.051747706 -1.5765218 -0.13465562 89
-0.052970782 -1.6052389 -0.081893802 88
-0.052650884 -1.5871408 -0.027051229 91
-0.047958244 -1.4381084 0.37504312 12
-0.052863248 -1.5769308 0.35515395 21
-0.049557019 -1.4706395 0.27833098 17
-0.046769269 -1.3807513 0.21251644 10
-0.045883801 -1.3476579 0.16063885 12
-0.048838872 -1.4271274 0.12133971 15
-0.047144651 -1.3706219 0.069635808 85
-0.054694336 -1.5820743 0.026694356 93
-0.055931624 -1.5779828 -0.41254744 55
-0.056686141 -1.5914235 -0.35852566 103
-0.056675304 -1.5833511 -0.30025432 86
-0.057116941 -1.5879365 -0.24533147 84
-0.057131443 -1.5806601 -0.18923745 84
-0.057250474 -1.5763315 -0.13465562 89
-0.05857379 -1.6050442 -0.081893802 90
-0.058190722 -1.5869474 -0.027051229 91
-0.05297789 -1.4379324 0.37504312 12
-0.058187213 -1.5718681 0.35403004 22
-0.055237491 -1.4851725 0.28119054 18
-0.051588707 -1.3805796 0.21251644 14
-0.050587729 -1.3474896 0.16063885 15
-0.053820178 -1.4269482 0.12133971 15
-0.051928733 -1.3704489 0.069635808 86
-0.060216472 -1.5818738 0.026694356 96
-0.061627399 -1.5826039 -0.41384071 57
-0.061860047 -1.5814792 -0.35627785 86
-0.062201887 -1.5831437 -0.30025432 89
-0.062659517 -1.5877275 -0.24533147 88
-0.062648632 -1.580451 -0.18923745 83
-0.062752552 -1.576122 -0.13465562 90
-0.064176083 -1.6048299 -0.081893802 90
-0.063729845 -1.5867347 -0.027051229 91
-0.057996888 -1.4377387 0.37504312 12
-0.063673705 -1.5716552 0.35403004 26
-0.060421377 -1.4849706 0.28119054 17
-0.05620588 -1.3754568 0.21173513 16
-0.055291034 -1.3473048 0.16063885 16
-0.059005942 -1.4317285 0.12177461 11
-0.056712169 -1.3702594 0.069635808 87
-0.065737873 -1.5816538 0.026694356 95
-0.067560911 -1.5920304 -0.41642722 86
-0.066550389 -1.5617832 -0.35178223 68
-0.067727715 -1.5829169 -0.30025432 88
-0.068201341 -1.5874991 -0.24533147 88
-0.068165056 -1.5802227 -0.18923745 83
-0.06825386 -1.5758934 -0.13465562 89
-0.069777593 -1.6045961 -0.081893802 88
-0.069268189 -1.5865026 -0.027051229 92
-0.0632267 -1.4423527 0.3763364 12
-0.06937363 -1.5762907 0.35515395 27
-0.065604523 -1.4847505 0.28119054 20
-0.060787912 -1.3703185 0.21095382 19
-0.059993669 -1.3471037 0.16063885 16
-0.063780762 -1.4265376 0.12133971 11
-0.061494924 -1.3700531 0.069635808 72
-0.071258478 -1.5814148 0.026694356 95
-0.073339351 -1.5966096 -0.4177205 97
-0.071328402 -1.5469408 -0.34841052 38
-0.073252708 -1.5826708 -0.30025432 90
-0.07374233 -1.5872514 -0.24533147 88
-0.073680639 -1.5799752 -0.18923745 85
-0.073754333 -1.5756456 -0.13465562 88
-0.075378254 -1.6043428 -0.081893802 92
-0.074805699 -1.586251 -0.027051229 93
-0.068261057 -1.4421231 0.3763364 13
-0.074875481 -1.5760391 0.35515395 30
-0.070786864 -1.4845126 0.28119054 21
-0.06533476 -1.3651649 0.2101725 19
-0.064695574 -1.346886 0.16063885 16
-0.068520069 -1.421331 0.1209048 11
-0.066276923 -1.36983 0.069635808 57
-0.076778211 -1.5811564 0.026694356 93
-0.079150565 -1.6011679 -0.41901374 97
-0.075255111 -1.5223652 -0.34279102 52
-0.078500628 -1.5824192 -0.30025432 88
-0.07900545 -1.5869981 -0.24533147 85
-0.078919627 -1.5797222 -0.18923745 85
-0.078978971 -1.5753924 -0.13465562 88
-0.080698036 -1.604084 -0.081893802 89
-0.080065489 -1.5859942 -0.027051229 92
-0.073042937 -1.4418888 0.3763364 13
-0.080348745 -1.5806477 0.35627785 28
-0.075709306 -1.4842697 0.28119054 23
-0.069609009 -1.3600086 0.20939118 23
-0.068907112 -1.3417078 0.16003038 17
-0.073233001 -1.4210961 0.1209048 11
-0.070819087 -1.3696027 0.069635808 40
-0.082280114 -1.5858855 0.026780745 95
-0.084459797 -1.6008966 -0.41901374 95
-0.082371414 -1.5561498 -0.35065833 73
-0.084023826 -1.5821356 -0.30025432 91
-0.084544621 -1.5867127 -0.24533147 86
-0.084433399 -1.5794371 -0.18923745 85
-0.084477626 -1.5751071 -0.13465562 88
-0.086296842 -1.6037925 -0.081893802 89
-0.085601151 -1.585705 -0.027051229 92
-0.078336813 -1.4464478 0.37762964 13
-0.085865743 -1.5803577 0.35627785 32
-0.080622755 -1.4790952 0.28023735 25
-0.0743559 -1.3597573 0.20939118 22
-0.073590122 -1.3414592 0.16003038 19
-0.077919401 -1.4158581 0.12046989 12
-0.075599454 -1.3693471 0.069635808 32
-0.087815389 -1.5855886 0.026780745 93
-0.090047456 -1.600592 -0.41901374 96
-0.088351913 -1.5655816 -0.35290614 92
-0.089545995 -1.5818325 -0.30025432 87
-0.090082765 -1.5864079 -0.24533147 86
-0.089946158 -1.5791327 -0.18923745 86
-0.08997526 -1.5748026 -0.13465562 89
-0.091894597 -1.6034815 -0.081893802 90
-0.09142267 -1.5903876 -0.02713849 88
-0.083385386 -1.4461654 0.37762964 12
-0.091663003 -1.5849122 0.35740176 36
-0.08578527 -1.4788047 0.28023735 25
-0.078815021 -1.3545592 0.20860986 26
-0.077983111 -1.3362397 0.15942189 17
-0.082861185 -1.4155777 0.12046989 13
-0.080378912 -1.3690751 0.069635808 31
-0.093349583 -1.5852724 0.026780745 93
-0.095634013 -1.600268 -0.41901374 96
-0.094982237 -1.5847168 -0.35740176 98
-0.095067076 -1.5815103 -0.30025432 88
-0.095619813 -1.5860838 -0.24533147 85
-0.095757328 -1.5837629 -0.18984592 85
-0.095471807 -1.5744789 -0.13465562 89
-0.097491235 -1.6031511 -0.081893802 90
-0.096973605 -1.5900588 -0.02713849 90
-0.088432938 -1.4458656 0.37762964 12
-0.097194828 -1.5845826 0.35740176 45
-0.090946734 -1.4784963 0.28023735 24
-0.083542839 -1.3542759 0.20860986 29
-0.082646973 -1.3359593 0.15942189 19
-0.087493546 -1.4103084 0.12003498 13
-0.085157387 -1.368786 0.069635808 30
-0.098882653 -1.584937 0.026780745 95
-0.10121941 -1.5999243 -0.41901374 96
-0.10113027 -1.5941 -0.35964957 97
-0.10058701 -1.5811689 -0.30025432 87
-0.10115571 -1.5857402 -0.24533147 88
-0.10128511 -1.5834191 -0.18984592 84
-0.10096718 -1.574136 -0.13465562 88
-0.10308667 -1.602801 -0.081893802 88
-0.10252336 -1.5897106 -0.02713849 88
-0.09347941 -1.4455482 0.37762964 12
-0.10272545 -1.5842338 0.35740176 56
-0.096107095 -1.4781698 0.28023735 23
-0.088269629 -1.3539761 0.20860986 32
-0.087309837 -1.3356627 0.15942189 21
-0.092415899 -1.4099942 0.12003498 14
-0.089934826 -1.3684804 0.069635808 30
-0.10441452 -1.5845822 0.026780745 93
-0.10680357 -1.5995612 -0.41901374 96
-0.10669411 -1.5937374 -0.35964957 97
-0.1061057 -1.5808082 -0.30025432 89
-0.10669034 -1.5853775 -0.24533147 89
-0.10681166 -1.5830559 -0.18984592 85
-0.10646132 -1.5737741 -0.13465562 86
-0.10901875 -1.6074132 -0.082154609 88
-0.10807185 -1.5893431 -0.02713849 92
-0.098524749 -1.4452131 0.37762964 13
-0.10825484 -1.5838654 0.35740176 65
-0.1012663 -1.4778254 0.28023735 23
-0.093333833 -1.3585867 0.20939118 33
-0.091971636 -1.3353498 0.15942189 21
-0.097337142 -1.4096631 0.12003498 13
-0.094711162 -1.3681582 0.069635808 31
-0.1099451 -1.584208 0.026780745 93
-0.11238644 -1.5991788 -0.41901374 98
-0.11225664 -1.5933552 -0.35964957 97
-0.11196891 -1.5853243 -0.30120748 87
-0.1122237 -1.5849955 -0.24533147 85
-0.1123369 -1.5826734 -0.18984592 85
-0.11230769 -1.5783612 -0.13509139 90
-0.114629 -1.6070228 -0.082154609 88
-0.11361904 -1.5889561 -0.02713849 92
-0.10322357 -1.4400429 0.3763364 12
-0.11378291 -1.583478 0.35740176 79
-0.10607161 -1.4725672 0.27928415 19
-0.098075613 -1.3582525 0.20939118 32
-0.096632317 -1.3350207 0.15942189 19
-0.10225719 -1.4093148 0.12003498 13
-0.099486351 -1.3678192 0.069635808 34
-0.11547435 -1.5838146 0.026780745 94
-0.11796793 -1.5987766 -0.41901374 97
-0.1178178 -1.5929537 -0.35964957 96
-0.11750204 -1.5849239 -0.30120748 89
-0.11812167 -1.5895191 -0.24611278 86
-0.11822943 -1.5872208 -0.19045439 86
-0.11781652 -1.5779595 -0.13509139 90
-0.12023786 -1.6066128 -0.082154609 88
-0.11916484 -1.5885497 -0.02713849 89
-0.10824962 -1.4396738 0.3763364 12
-0.11930958 -1.5830711 0.35740176 75
-0.11121118 -1.472188 0.27928415 17
-0.10318907 -1.3628265 0.2101725 34
-0.10091627 -1.3297266 0.15881342 22
-0.107176 -1.4089493 0.12003498 14
-0.10463993 -1.3724424 0.069896623 43
-0.12138312 -1.5883865 0.026867134 92
-0.1239202 -1.6031706 -0.42030698 97
-0.12300121 -1.5876753 -0.35852566 97
-0.12303375 -1.584504 -0.30120748 90
-0.12366942 -1.5890971 -0.24611278 87
-0.12376913 -1.5867983 -0.19045439 86
-0.12332391 -1.5775386 -0.13509139 90
-0.12584525 -1.6061834 -0.082154609 90
-0.12470918 -1.5881242 -0.02713849 91
-0.11251647 -1.4296572 0.37374988 12
-0.12521791 -1.587502 0.35852566 40
-0.11596258 -1.4668977 0.27833098 16
-0.10872571 -1.3723043 0.21173513 35
-0.10595009 -1.3343134 0.15942189 17
-0.11248864 -1.4135319 0.12046989 15
-0.10943 -1.3720688 0.069896623 50
-0.12692688 -1.5879532 0.026867134 92
-0.12951556 -1.6027284 -0.42030698 99
-0.12854248 -1.5872363 -0.35852566 99
-0.12856394 -1.5840648 -0.30120748 91
-0.12921563 -1.5886557 -0.24611278 88
-0.12930734 -1.5863566 -0.19045439 83
-0.12882979 -1.5770985 -0.13509139 90
-0.13145112 -1.6057342 -0.082154609 88
-0.13025202 -1.5876791 -0.02713849 89
-0.11671471 -1.4196286 0.3711634 11
-0.12995845 -1.5773441 0.35627785 19
-0.12108231 -1.4664841 0.27833098 16
-0.11392251 -1.3768382 0.21251644 30
-0.11060707 -1.3339355 0.15942189 17
-0.1174221 -1.4131306 0.12046989 15
-0.11421874 -1.3716785 0.069896623 46
-0.1324691 -1.5875006 0.026867134 91
-0.13510934 -1.6022666 -0.42030698 98
-0.13449241 -1.5916326 -0.35964957 99
-0.13409258 -1.5836065 -0.30120748 86
-0.13476029 -1.5881948 -0.24611278 89
-0.13484398 -1.5858957 -0.19045439 84
-0.1343341 -1.5766392 -0.13509139 89
-0.13705537 -1.6052656 -0.082154609 90
-0.13579325 -1.5872147 -0.02713849 90
-0.12084433 -1.4095881 0.36857688 10
-0.13045958 -1.5186307 0.34279102 10
-0.1257796 -1.4611622 0.27737778 22
-0.1191523 -1.3813524 0.21329775 27
-0.11526271 -1.3335413 0.15942189 20
-0.12235413 -1.4127121 0.12046989 15
-0.1190061 -1.3712714 0.069896623 39
-0.1380097 -1.5870284 0.026867134 92
-0.14070147 -1.6017851 -0.42030698 97
-0.14004742 -1.5911535 -0.35964957 97
-0.13961957 -1.5831288 -0.30120748 87
-0.14030331 -1.5877149 -0.24611278 85
-0.14037897 -1.5854152 -0.19045439 82
-0.13983679 -1.5761608 -0.13509139 90
-0.14310008 -1.609751 -0.082415417 89
-0.14133285 -1.5867311 -0.02713849 90
-0.12447594 -1.3947254 0.36469713 10
-0.12447727 -1.3919965 0.31356949 5
-0.13087922 -1.4607142 0.27737778 27
-0.12441498 -1.3858469 0.21407905 23
-0.11991692 -1.3331308 0.15942189 21
-0.12773179 -1.4172373 0.1209048 16
-0.12379201 -1.3708476 0.069896623 35
-0.14354864 -1.586537 0.026867134 94
-0.1467313 -1.6060941 -0.42160022 90
-0.14560074 -1.5906547 -0.35964957 98
-0.14514488 -1.5826317 -0.30120748 86
-0.1462965 -1.5921333 -0.24689408 87
-0.14591224 -1.5849155 -0.19045439 80
-0.14533776 -1.575663 -0.13509139 90
-0.14871828 -1.6092416 -0.082415417 87
-0.1468707 -1.5862283 -0.02713849 92
-0.12845141 -1.3846641 0.36211061 9
-0.12888458 -1.3867023 0.31244558 14
-0.13643238 -1.4651356 0.27833098 25
-0.1297105 -1.3903215 0.21486036 20
-0.12503156 -1.3376454 0.16003038 22
-0.13267809 -1.4167829 0.1209048 19
-0.1285764 -1.3704071 0.069896623 41
-0.1490858 -1.5860263 0.026867134 92
-0.15233672 -1.6055721 -0.42160022 63
-0.15161332 -1.5949872 -0.3607735 93
-0.15066841 -1.5821154 -0.30120748 90
-0.15185319 -1.5916131 -0.24689408 84
-0.15144375 -1.5843966 -0.19045439 82
-0.15083697 -1.5751461 -0.13509139 88
-0.15433468 -1.6087127 -0.082415417 88
-0.15288506 -1.590682 -0.027225751 91
-0.13235816 -1.3745921 0.35952413 7
-0.13138527 -1.3619964 0.30682606 13
-0.14154582 -1.4646505 0.27833098 24
-0.13456284 -1.3898602 0.21486036 16
-0.12970005 -1.3372006 0.16003038 24
-0.13762277 -1.416311 0.1209048 22
-0.13384302 -1.3749198 0.070157431 50
-0.15462115 -1.5854962 0.026867134 95
-0.15415637 -1.5665773 -0.4112542 36
-0.15717995 -1.5944483 -0.3607735 94
-0.15667248 -1.5864644 -0.30216068 86
-0.15740803 -1.5910732 -0.24689408 86
-0.15697341 -1.5838583 -0.19045439 82
-0.15633434 -1.5746099 -0.13509139 89
-0.1599492 -1.6081642 -0.082415417 88
-0.15843664 -1.5901388 -0.027225751 89
-0.13619618 -1.3645097 0.35693762 8
-0.13613871 -1.3615294 0.30682606 13
-0.14714675 -1.4690315 0.27928415 24
-0.13941354 -1.389382 0.21486036 14
-0.1348633 -1.3416778 0.16063885 21
-0.14256579 -1.4158221 0.1209048 20
-0.13864158 -1.3744441 0.070157431 61
-0.16015463 -1.5849469 0.026867134 94
-0.15129781 -1.4843454 -0.38926893 24
-0.16323952 -1.5987368 -0.36189741 91
-0.16220933 -1.5859079 -0.30216068 88
-0.16296096 -1.5905141 -0.24689408 87
-0.16250114 -1.5833008 -0.19045439 85
-0.1618298 -1.5740547 -0.13509139 88
-0.16556175 -1.607596 -0.082415417 88
-0.16398631 -1.589576 -0.027225751 91
-0.14046191 -1.3592218 0.35564438 8
-0.14089049 -1.361046 0.30682606 14
-0.15277997 -1.4733909 0.28023735 24
-0.14426252 -1.3888869 0.21486036 13
-0.13954583 -1.3411988 0.16063885 21
-0.14750706 -1.4153159 0.1209048 22
-0.14343843 -1.3739519 0.070157431 58
-0.16620612 -1.5893503 0.026953524 92
-0.14685407 -1.392547 -0.36469713 22
-0.16854024 -1.5981866 -0.36189741 92
-0.16746749 -1.5853612 -0.30216068 90
-0.16823441 -1.5899649 -0.24689408 85
-0.16775066 -1.5827532 -0.19045439 85
-0.16704866 -1.5735093 -0.13509139 86
-0.17089182 -1.6070381 -0.082415417 88
-0.16925664 -1.5890235 -0.027225751 88
-0.14496846 -1.3587484 0.35564438 8
-0.14540312 -1.3605711 0.30682606 14
-0.15818751 -1.4777569 0.28119054 23
-0.14834094 -1.3834904 0.21407905 12
-0.14346269 -1.3357943 0.16003038 20
-0.15273237 -1.4197714 0.12133971 28
-0.14852877 -1.3784331 0.070418239 45
-0.17147566 -1.5887904 0.026953524 94
-0.14990373 -1.3776479 -0.36081737 24
-0.17411792 -1.5975885 -0.36189741 89
-0.17300041 -1.584767 -0.30216068 86
-0.17378339 -1.589368 -0.24689408 88
-0.17327449 -1.582158 -0.19045439 84
-0.17308335 -1.577868 -0.13552718 85
-0.17650041 -1.6064318 -0.082415417 86
-0.17534919 -1.5933923 -0.027313014 91
-0.14971051 -1.3582342 0.35564438 8
-0.15015152 -1.3600554 0.30682606 14
-0.16388433 -1.482074 0.28214374 11
-0.15316932 -1.3829641 0.21407905 20
-0.14867176 -1.3402179 0.16063885 20
-0.15768737 -1.4192295 0.12133971 31
-0.15333949 -1.3779063 0.070418239 33
-0.17702053 -1.5881822 0.026953524 92
-0.15686858 -1.3963149 -0.36599037 27
-0.17969349 -1.596971 -0.36189741 93
-0.17853123 -1.5841535 -0.30216068 90
-0.17933026 -1.5887517 -0.24689408 88
-0.17879617 -1.5815434 -0.19045439 86
-0.17859007 -1.5772542 -0.13552718 90
-0.18210682 -1.605806 -0.082415417 92
-0.18091011 -1.5927705 -0.027313014 91
-0.15445071 -1.3577033 0.35564438 8
-0.15489808 -1.3595231 0.30682606 13
-0.16961323 -1.4863696 0.28309694 8
-0.15743504 -1.3775145 0.21329775 18
-0.15504228 -1.3544828 0.16246429 22
-0.16320775 -1.423619 0.12177461 36
-0.15814835 -1.3773626 0.070418239 28
-0.18256326 -1.5875545 0.026953524 94
-0.16007379 -1.3813655 -0.36211061 25
-0.18526687 -1.596334 -0.36189741 92
-0.18405987 -1.5835207 -0.30216068 88
-0.18487495 -1.588116 -0.24689408 84
-0.18489042 -1.585839 -0.19106288 85
-0.18409464 -1.5766212 -0.13552718 88
-0.18771102 -1.6051605 -0.082415417 90
-0.18646879 -1.5921293 -0.027313014 92
-0.15918905 -1.3571558 0.35564438 8
-0.15964276 -1.358974 0.30682606 13
-0.17594761 -1.4955178 0.2850033 11
-0.16282041 -1.3818611 0.21407905 25
-0.16384056 -1.3884338 0.16672367 30
-0.16876072 -1.4279873 0.12220953 34
-0.16295527 -1.3768022 0.070418239 27
-0.18810374 -1.5869077 0.026953524 93
-0.16489467 -1.3807983 -0.36211061 28
-0.19083798 -1.5956776 -0.36189741 92
-0.18958625 -1.5828685 -0.30216068 89
-0.19100553 -1.5923644 -0.24767539 87
-0.1904249 -1.5851841 -0.19106288 81
-0.18959697 -1.575969 -0.13552718 89
-0.19331293 -1.6044954 -0.082415417 88
-0.19202523 -1.5914687 -0.027313014 92
-0.16392544 -1.3565919 0.35564438 9
-0.16438548 -1.3584083 0.30682606 12
-0.18175739 -1.4997673 0.2859565 14
-0.16764301 -1.3812844 0.21407905 27
-0.1728777 -1.4223396 0.17098303 38
-0.17494802 -1.4372786 0.12307934 28
-0.16715604 -1.3712685 0.070157431 26
-0.19364193 -1.5862414 0.026953524 93
-0.1691241 -1.3754207 -0.36081737 32
-0.19640677 -1.5950017 -0.36189741 91
-0.19511035 -1.5821971 -0.30216068 87
-0.19656277 -1.5916879 -0.24767539 85
-0.19595706 -1.5845097 -0.19106288 86
-0.19509695 -1.5752975 -0.13552718 89
-0.19952707 -1.6087662 -0.082676224 86
-0.19757932 -1.5907887 -0.027313014 91
-0.16865982 -1.3560115 0.35564438 10
-0.1691262 -1.3578264 0.30682606 12
-0.18759896 -1.5039942 0.28690967 25
-0.17307571 -1.3855913 0.21486036 19
-0.18092148 -1.4463497 0.17402543 27
-0.17996399 -1.4366592 0.12307934 25
-0.17194162 -1.3706766 0.070157431 28
-0.19917779 -1.5855558 0.026953524 94
-0.173318 -1.3700302 -0.35952413 33
-0.20197317 -1.5943065 -0.36189741 92
-0.20063207 -1.5815064 -0.30216068 87
-0.20273997 -1.5958914 -0.2484567 86
-0.20148684 -1.5838161 -0.19106288 84
-0.20059457 -1.574607 -0.13552718 90
-0.20514148 -1.6080599 -0.082676224 90
-0.20313101 -1.5900893 -0.027313014 91
-0.17400505 -1.3602054 0.35693762 10
-0.17448394 -1.3620601 0.30794996 12
-0.19284771 -1.5033301 0.28690967 45
-0.1785405 -1.389877 0.21564168 14
-0.18090367 -1.4063312 0.16915759 20
-0.18561414 -1.4409624 0.12351425 29
-0.17672513 -1.3700682 0.070157431 27
-0.20471117 -1.5848509 0.026953524 95
-0.17747635 -1.3646274 -0.35823086 36
-0.20753711 -1.5935917 -0.36189741 92
-0.20615132 -1.5807964 -0.30216068 89
-0.20830946 -1.595174 -0.2484567 86
-0.20701417 -1.5831031 -0.19106288 86
-0.20673645 -1.5788358 -0.13596296 87
-0.21075341 -1.607334 -0.082676224 89
-0.20868023 -1.5893706 -0.027313014 90
-0.17875198 -1.3595897 0.35693762 10
-0.17987329 -1.3662733 0.30907387 13
-0.19873568 -1.5075141 0.28786287 62
-0.1840373 -1.3941414 0.21642299 11
-0.18060873 -1.3663309 0.16428974 17
-0.19064289 -1.4403058 0.12351425 32
-0.1815065 -1.3694429 0.070157431 32
-0.21024211 -1.5841265 0.026953524 94
-0.1815991 -1.3592123 -0.35693762 38
-0.21309851 -1.5928576 -0.36189741 88
-0.21166807 -1.5800672 -0.30216068 86
-0.21387637 -1.5944371 -0.2484567 89
-0.21253897 -1.5823708 -0.19106288 83
-0.21224636 -1.5781046 -0.13596296 88
-0.21636276 -1.6065886 -0.082676224 89
-0.21422689 -1.5886325 -0.027313014 90
-0.18414301 -1.3637438 0.35823086 9
-0.18659973 -1.3801214 0.31244558 14
-0.20531367 -1.5165392 0.28976923 26
-0.18956605 -1.3983843 0.2172043 13
-0.17736669 -1.3066792 0.15698798 16
-0.19499852 -1.4346958 0.12307934 38
-0.18628564 -1.3688009 0.070157431 39
-0.21577045 -1.5833831 0.026953524 93
-0.1856862 -1.353785 -0.35564438 37
-0.21932022 -1.5969307 -0.36302131 91
-0.21718226 -1.5793188 -0.30216068 86
-0.2194407 -1.5936807 -0.2484567 86
-0.21873899 -1.5865355 -0.19167136 85
-0.21775368 -1.5773542 -0.13596296 89
-0.22196949 -1.6058235 -0.082676224 89
-0.21977095 -1.5878749 -0.027313014 88
-0.18956527 -1.3678768 0.35952413 10
-0.19275537 -1.3891132 0.31469339 14
-0.21128158 -1.5206746 0.29072243 9
-0.19444618 -1.3977141 0.2172043 17
-0.18192677 -1.3060521 0.15698798 15
-0.19862922 -1.4241399 0.12220953 51
-0.19175312 -1.3730875 0.070418239 53
-0.2219885 -1.5875714 0.027039913 94
-0.18973763 -1.3483459 -0.35435113 40
-0.22489323 -1.5961554 -0.36302131 90
-0.22269379 -1.5785509 -0.30216068 86
-0.22500233 -1.592905 -0.2484567 85
-0.22427571 -1.5857624 -0.19167136 84
-0.22395675 -1.5815164 -0.13639873 89
-0.22757351 -1.6050389 -0.082676224 88
-0.22531232 -1.5870982 -0.027313014 88
-0.1950186 -1.3719885 0.36081737 14
-0.19966255 -1.4029022 0.31806511 13
-0.21935818 -1.5393648 0.29453519 7
-0.20002148 -1.4019159 0.2179856 16
-0.18788831 -1.3152349 0.15820493 17
-0.20218863 -1.4135761 0.12133971 45
-0.1965449 -1.3724099 0.070418239 67
-0.2275288 -1.5867867 0.027039913 93
-0.19444311 -1.3476753 -0.35435113 39
-0.23046347 -1.5953608 -0.36302131 88
-0.22820258 -1.5777639 -0.30216068 75
-0.23056124 -1.59211 -0.2484567 88
-0.22980969 -1.5849699 -0.19167136 85
-0.2294759 -1.580725 -0.13639873 90
-0.23389296 -1.6091762 -0.082937032 88
-0.23157088 -1.5912491 -0.027400276 91
-0.20050292 -1.376079 0.36211061 14
-0.20455839 -1.4021966 0.31806511 13
-0.22331144 -1.5288762 0.29262879 6
-0.20491387 -1.4012091 0.2179856 8
-0.19319718 -1.3194816 0.15881342 18
-0.20495424 -1.3980767 0.12003498 27
-0.20205942 -1.3766557 0.070679054 72
-0.23306632 -1.5859829 0.027039913 94
-0.19843979 -1.3422105 -0.35305786 41
-0.23646519 -1.5994074 -0.36414522 86
-0.23343341 -1.5769986 -0.30216068 58
-0.23583961 -1.5913367 -0.2484567 84
-0.2357928 -1.5891082 -0.19227985 86
-0.2347165 -1.5799552 -0.13639873 89
-0.23922791 -1.6083916 -0.082937032 88
-0.23684639 -1.5904725 -0.027400276 90
-0.20577729 -1.3801833 0.36340389 25
-0.20920709 -1.4015106 0.31806511 27
-0.22402719 -1.4990009 0.28690967 5
-0.20955932 -1.400522 0.2179856 8
-0.1968364 -1.3139255 0.15820493 20
-0.20811164 -1.3875375 0.11916516 14
-0.20662346 -1.3759781 0.070679054 75
-0.23906758 -1.5901448 0.027126303 95
-0.20216738 -1.3367696 -0.35176462 40
-0.24204671 -1.5985721 -0.36414522 86
-0.23820105 -1.5713212 -0.30120748 34
-0.24213403 -1.5953864 -0.24923801 85
-0.24133839 -1.5882754 -0.19227985 83
-0.24023014 -1.5791264 -0.13639873 87
-0.24484079 -1.6075467 -0.082937032 88
-0.24239674 -1.589636 -0.027400276 92
-0.21132267 -1.3842312 0.36469713 35
-0.2118897 -1.3863236 0.31469339 30
-0.22628859 -1.4788024 0.28309694 6
-0.21295103 -1.3900186 0.21642299 5
-0.20292646 -1.3230414 0.15942189 13
-0.20690566 -1.3474158 0.11568588 7
-0.212184 -1.3801836 0.070939861 70
-0.24461679 -1.5893008 0.027126303 92
-0.20609346 -1.3312826 -0.35047138 43
-0.24762529 -1.5977176 -0.36414522 86
-0.24368456 -1.5704802 -0.30120748 18
-0.2477015 -1.5945314 -0.24923801 85
-0.24688101 -1.5874233 -0.19227985 85
-0.24574088 -1.5782781 -0.13639873 87
-0.25045067 -1.6066823 -0.082937032 88
-0.24871498 -1.5937197 -0.027487539 90
-0.21615325 -1.3834851 0.36469713 47
-0.21898632 -1.4000161 0.31806511 39
-0.22689296 -1.4489082 0.27737778 8
-0.22086141 -1.4087827 0.21954823 14
-0.21216056 -1.3517419 0.16307278 19
-0.22397891 -1.4254161 0.12264443 10
-0.21777639 -1.3843671 0.071200669 62
-0.25016299 -1.5884372 0.027126303 93
-0.20998368 -1.3257848 -0.34917811 45
-0.25320089 -1.5968435 -0.36414522 84
-0.24916507 -1.5696199 -0.30120748 37
-0.25326592 -1.5936571 -0.24923801 86
-0.25242066 -1.5865519 -0.19227985 86
-0.2512486 -1.5774107 -0.13639873 89
-0.2560575 -1.6057982 -0.082937032 86
-0.25427657 -1.5928417 -0.027487539 87
-0.22174342 -1.3874917 0.36599037 43
-0.23002966 -1.43773 0.32705632 56
-0.23893584 -1.4917264 0.2859565 25
-0.23672462 -1.4762713 0.23048657 33
-0.23182358 -1.4440949 0.17463391 35
-0.23527612 -1.463969 0.12612371 33
-0.22340058 -1.3885282 0.071461476 59
-0.25570613 -1.5875542 0.027126303 94
-0.21383806 -1.320276 -0.34788486 46
-0.25877336 -1.59595 -0.36414522 85
-0.25542897 -1.5735856 -0.30216068 59
-0.2588273 -1.5927634 -0.24923801 87
-0.25795722 -1.5856612 -0.19227985 83
-0.25675324 -1.5765241 -0.13639873 88
-0.26166123 -1.6048946 -0.082937032 89
-0.25983506 -1.5919446 -0.027487539 90
-0.22736417 -1.3914757 0.36728364 32
-0.2444849 -1.4946159 0.34054321 49
-0.24652107 -1.5054146 0.28881606 31
-0.25066468 -1.5290446 0.23908098 36
-0.25133005 -1.5314289 0.18558656 37
-0.24846022 -1.5122906 0.13047281 49
-0.22905642 -1.3926671 0.071722284 58
-0.26124617 -1.5866519 0.027126303 92
-0.21844539 -1.3195215 -0.34788486 48
-0.26434267 -1.595037 -0.36414522 86
-0.26092026 -1.5726844 -0.30216068 80
-0.26519465 -1.596722 -0.25001931 87
-0.26349065 -1.584751 -0.19227985 86
-0.2622548 -1.5756183 -0.13639873 88
-0.26808244 -1.6088969 -0.08319784 90
-0.26539046 -1.5910277 -0.027487539 91
-0.23381093 -1.4002013 0.36987013 17
-0.26094654 -1.5610286 0.35627785 45
-0.25987548 -1.5529547 0.29834792 38
-0.26334405 -1.5719967 0.24611278 42
-0.26159903 -1.559909 0.18923745 64
-0.26363373 -1.5703616 0.13569172 70
-0.23557143 -1.4017072 0.072243899 65
-0.26678303 -1.5857303 0.027126303 93
-0.22224455 -1.3139887 -0.34659159 48
-0.27072212 -1.5989082 -0.36526912 87
-0.2672286 -1.5766033 -0.30311388 85
-0.27076665 -1.5957866 -0.25001931 88
-0.26985192 -1.5887142 -0.19288832 87
-0.26858807 -1.5796037 -0.13683452 89
-0.27369693 -1.6079512 -0.08319784 89
-0.27094254 -1.5900917 -0.027487539 92
-0.23950925 -1.4041378 0.3711634 12
-0.27131423 -1.5889235 0.36302131 49
-0.27356473 -1.6004194 0.30787984 50
-0.27216157 -1.5905392 0.24923801 57
-0.27290779 -1.5932275 0.19349679 50
-0.27500647 -1.6037976 0.13873607 72
-0.24215235 -1.4107188 0.072765514 63
-0.27316329 -1.5897166 0.027212691 94
-0.22682986 -1.3132049 -0.34659159 48
-0.27630168 -1.5979534 -0.36526912 85
-0.27356747 -1.5804971 -0.30406705 90
-0.27633533 -1.5948318 -0.25001931 86
-0.2753959 -1.5877627 -0.19288832 84
-0.27410027 -1.5786564 -0.13683452 88
-0.27930805 -1.606986 -0.08319784 90
-0.27649134 -1.5891362 -0.027487539 90
-0.2460666 -1.4128096 0.37374988 11
-0.2776958 -1.5927664 0.36414522 51
-0.27999341 -1.6042899 0.308833 60
-0.27686197 -1.5847145 0.2484567 52
-0.27333778 -1.5629334 0.18984592 41
-0.28060314 -1.6028277 0.13873607 57
-0.2479371 -1.4147832 0.073026322 54
-0.27871075 -1.5887533 0.027212691 93
-0.23057373 -1.3076485 -0.34529832 48
-0.28187793 -1.5969791 -0.36526912 68
-0.27993676 -1.5843661 -0.30502024 89
-0.28190064 -1.5938574 -0.25001931 85
-0.28093654 -1.5867918 -0.19288832 84
-0.27960914 -1.5776901 -0.13683452 89
-0.28578797 -1.6109177 -0.083458655 90
-0.28291091 -1.5930837 -0.0275748 92
-0.25184208 -1.4166975 0.37504312 18
-0.28325388 -1.5917875 0.36414522 49
-0.2864525 -1.6081351 0.3097862 58
-0.28325889 -1.5886004 0.24923801 36
-0.26919952 -1.5082279 0.18315265 33
-0.28006378 -1.5675148 0.13569172 27
-0.25375319 -1.4188242 0.073287129 36
-0.28425482 -1.5877708 0.027212691 94
-0.23428158 -1.3020823 -0.34400508 48
-0.28658709 -1.5911907 -0.36414522 48
-0.28546554 -1.5833793 -0.30502024 88
-0.28746253 -1.5928637 -0.25001931 88
-0.28735602 -1.5906851 -0.19349679 85
-0.28511462 -1.5767044 -0.13683452 88
-0.29140937 -1.6099102 -0.083458655 88
-0.28847009 -1.5920866 -0.0275748 92
-0.25764766 -1.420562 0.3763364 13
-0.28967881 -1.5955826 0.36526912 46
-0.29206419 -1.6071254 0.3097862 56
-0.28438303 -1.5633078 0.24533147 29
-0.26735002 -1.4682186 0.17828478 32
-0.27660185 -1.5175246 0.13134262 23
-0.25870425 -1.4179299 0.073287129 27
-0.29069364 -1.5916868 0.02729908 94
-0.23795339 -1.296506 -0.34271184 49
-0.29037896 -1.5805968 -0.36189741 22
-0.29187858 -1.5872008 -0.30597344 87
-0.2930209 -1.5918506 -0.25001931 87
-0.29290682 -1.5896723 -0.19349679 85
-0.29152003 -1.5805979 -0.13727029 88
-0.29702723 -1.6088833 -0.083458655 87
-0.29402575 -1.5910698 -0.0275748 91
-0.26348326 -1.4244032 0.37762964 12
-0.29524666 -1.5945617 0.36526912 48
-0.2976723 -1.606096 0.3097862 51
-0.28173077 -1.518604 0.23829968 28
-0.26522458 -1.4282413 0.17341694 39
-0.27006355 -1.4528866 0.12568879 26
-0.26365218 -1.4170182 0.073287129 21
-0.2962479 -1.5906625 0.02729908 95
-0.24158911 -1.2909201 -0.34141859 51
-0.2941004 -1.5699959 -0.35964957 10
-0.29741716 -1.5861721 -0.30597344 89
-0.2985757 -1.590818 -0.25001931 86
-0.29845399 -1.5886403 -0.19349679 83
-0.29703555 -1.5795707 -0.13727029 89
-0.30264148 -1.6078367 -0.083458655 87
-0.30050343 -1.5949465 -0.027662061 91
-0.26934886 -1.428221 0.37892288 11
-0.30081093 -1.5935214 0.36526912 50
-0.30327681 -1.6050471 0.3097862 45
-0.27968779 -1.478791 0.2320492 36
-0.27020842 -1.4273067 0.17341694 49
-0.27606079 -1.456829 0.12612371 32
-0.2676664 -1.4111835 0.073026322 20
-0.30179852 -1.5896187 0.02729908 92
-0.24609381 -1.2900689 -0.34141859 53
-0.29866514 -1.5641742 -0.35852566 4
-0.30295214 -1.5851244 -0.30597344 91
-0.30505481 -1.5946168 -0.25080064 88
-0.30399761 -1.5875889 -0.19349679 85
-0.30254748 -1.5785242 -0.13727029 91
-0.30825204 -1.6067705 -0.083458655 87
-0.30606899 -1.5938878 -0.027662061 93
-0.27433264 -1.4272722 0.37892288 11
-0.30637154 -1.5924616 0.36526912 51
-0.30980575 -1.6087984 0.3107394 47
-0.28017446 -1.4535589 0.22814263 39
-0.27424887 -1.4214817 0.17280847 60
-0.28114441 -1.4558564 0.12612371 39
-0.2716431 -1.4053382 0.072765514 20
-0.30734548 -1.5885555 0.02729908 93
-0.2496739 -1.2844609 -0.34012532 54
-0.30505377 -1.5679045 -0.35964957 3
-0.30848339 -1.5840572 -0.30597344 90
-0.31061924 -1.5935422 -0.25080064 88
-0.31048781 -1.5913888 -0.19410528 84
-0.30805576 -1.5774584 -0.13727029 88
-0.31481674 -1.6105853 -0.083719462 89
-0.31163085 -1.5928098 -0.027662061 90
-0.27931306 -1.4263058 0.37892288 11
-0.31286556 -1.5961635 0.36639303 47
-0.31541964 -1.6077074 0.3107394 47
-0.28619823 -1.4574182 0.22892395 38
-0.27920908 -1.4205158 0.17280847 60
-0.28526303 -1.4499788 0.12568879 46
-0.27654701 -1.4043814 0.072765514 21
-0.31288874 -1.587473 0.02729908 94
-0.25415599 -1.2835815 -0.34012532 55
-0.31241924 -1.5763885 -0.36189741 2
-0.31496596 -1.5877852 -0.30692664 91
-0.31714162 -1.5972923 -0.25158197 85
-0.3160409 -1.5902956 -0.19410528 83
-0.31453195 -1.5812589 -0.13770607 87
-0.32043681 -1.6094766 -0.083719462 88
-0.3181659 -1.5966151 -0.027749324 90
-0.28334537 -1.4205855 0.37762964 10
-0.31843528 -1.5950617 0.36639303 48
-0.32102963 -1.6065965 0.3107394 49
-0.29128385 -1.4564103 0.22892395 38
-0.2851401 -1.4243988 0.17341694 70
-0.29032266 -1.4489743 0.12568879 54
-0.28242934 -1.4083031 0.073026322 20
-0.31941199 -1.5912726 0.02738547 93
-0.25768036 -1.2779521 -0.33883208 58
-0.31888378 -1.5800641 -0.36302131 2
-0.32050645 -1.5866762 -0.30692664 89
-0.32271525 -1.5961756 -0.25158197 87
-0.32159016 -1.5891826 -0.19410528 86
-0.32004967 -1.5801513 -0.13770607 87
-0.32605299 -1.6083481 -0.083719462 88
-0.3237372 -1.5954947 -0.027749324 89
-0.28830242 -1.4195879 0.37762964 11
-0.32400116 -1.5939405 0.36639303 46
-0.32663578 -1.6054661 0.3107394 49
-0.29538044 -1.4505453 0.22814263 32
-0.29011041 -1.4233948 0.17341694 62
-0.29537877 -1.447952 0.12568879 47
-0.2893413 -1.4170933 0.073547937 22
-0.32496461 -1.590148 0.02738547 92
-0.26213965 -1.2770449 -0.33883208 59
-0.32804039 -1.5980881 -0.36751691 2
-0.32576627 -1.5856045 -0.30692664 91
-0.32800663 -1.5950966 -0.25158197 86
-0.32685828 -1.5881075 -0.19410528 85
-0.32528788 -1.5790814 -0.13770607 88
-0.33138466 -1.6072581 -0.083719462 88
-0.32902625 -1.5944124 -0.027749324 91
-0.29300836 -1.418624 0.37762964 11
-0.32928506 -1.5928572 0.36639303 50
-0.33195788 -1.6043741 0.3107394 52
-0.30018902 -1.4495579 0.22814263 23
-0.29583621 -1.4272845 0.17402543 54
-0.30017874 -1.4469646 0.12568879 49
-0.29505408 -1.4210149 0.073808745 28
-0.33125314 -1.5939561 0.027471859 92
-0.26637304 -1.2761685 -0.33883208 64
-0.33262044 -1.5921643 -0.36639303 4
-0.3312991 -1.5844578 -0.30692664 91
-0.33357251 -1.5939419 -0.25158197 84
-0.33341727 -1.5918143 -0.19471376 87
-0.33079791 -1.5779363 -0.13770607 88
-0.33699301 -1.6060915 -0.083719462 89
-0.33458978 -1.5932543 -0.027749324 91
-0.29795849 -1.4175925 0.37762964 11
-0.33584616 -1.5964659 0.36751691 48
-0.33856744 -1.6080086 0.31169257 50
-0.31237561 -1.4823285 0.23361182 21
-0.30081654 -1.4262432 0.17402543 45
-0.30625659 -1.4507815 0.12612371 39
-0.30207691 -1.4297471 0.07433036 63
-0.33681506 -1.5927901 0.027471859 92
-0.27182943 -1.2799553 -0.34012532 65
-0.33513722 -1.5766968 -0.36302131 17
-0.33682787 -1.5832918 -0.30692664 90
-0.3391344 -1.5927678 -0.25158197 87
-0.3389717 -1.5906408 -0.19471376 86
-0.33630392 -1.5767719 -0.13770607 88
-0.34259728 -1.6049054 -0.083719462 90
-0.34014925 -1.5920767 -0.027749324 91
-0.30189505 -1.4118209 0.3763364 11
-0.34141681 -1.5952839 0.36751691 49
-0.34417838 -1.6068169 0.31169257 48
-0.32686493 -1.5246888 0.24064361 24
-0.31620473 -1.4737084 0.18011025 36
-0.3123647 -1.4545736 0.12655862 34
-0.30916423 -1.4384471 0.074851982 45
-0.34237286 -1.5916048 0.027471859 93
-0.27527583 -1.2742778 -0.33883208 67
-0.33446133 -1.5469451 -0.35627785 22
-0.34339061 -1.5869036 -0.30787984 92
-0.34573746 -1.596401 -0.25236326 88
-0.34452203 -1.5894477 -0.19471376 83
-0.34286183 -1.580456 -0.13814184 88
-0.34819737 -1.6036998 -0.083719462 90
-0.34570456 -1.5908796 -0.027749324 92
-0.30682141 -1.4107585 0.3763364 11
-0.34698334 -1.5940824 0.36751691 48
-0.34978512 -1.6056058 0.31169257 48
-0.34270573 -1.5717906 0.2484567 32
-0.33192784 -1.521083 0.18619505 77
-0.31850302 -1.4583408 0.12699352 25
-0.31311721 -1.4324812 0.074591175 34
-0.34792656 -1.5903999 0.027471859 93
-0.28283116 -1.2874612 -0.34271184 49
-0.34299776 -1.5600432 -0.35964957 16
-0.34892786 -1.5856953 -0.30787984 91
-0.35130784 -1.5951844 -0.25236326 87
-0.35006812 -1.5882355 -0.19471376 85
-0.34837657 -1.5792497 -0.13814184 87
-0.3537932 -1.6024747 -0.083719462 89
-0.35233429 -1.5945445 -0.027836585 89
-0.31174397 -1.4096788 0.3763364 12
-0.35359845 -1.5976183 0.36864081 50
-0.3564491 -1.6091672 0.31264576 49
-0.3524659 -1.5898709 0.25158197 44
-0.34798539 -1.5683651 0.19227985 71
-0.33654919 -1.5155715 0.13221245 18
-0.31703234 -1.4265053 0.07433036 36
-0.35456139 -1.5940558 0.027558248 94
-0.28837627 -1.2911799 -0.34400508 32
-0.35162964 -1.5731007 -0.36302131 28
-0.35446084 -1.5844676 -0.30787984 91
-0.35687393 -1.5939484 -0.25236326 85
-0.35669512 -1.5918467 -0.19532226 85
-0.35388705 -1.578024 -0.13814184 85
-0.36047819 -1.6061019 -0.08398027 87
-0.35789815 -1.5933049 -0.027836585 90
-0.31560344 -1.4038699 0.37504312 12
-0.359173 -1.5963743 0.36864081 51
-0.362064 -1.6079129 0.31264576 47
-0.35801342 -1.5886308 0.25158197 50
-0.35782552 -1.5865059 0.19471376 71
-0.35609531 -1.5775518 0.13786626 23
-0.32090956 -1.4205195 0.074069552 29
-0.36012352 -1.5928085 0.027558248 90
-0.29715851 -1.3090054 -0.34917811 17
-0.35927746 -1.5813656 -0.36526912 32
-0.36107773 -1.5880066 -0.308833 89
-0.36243567 -1.5926931 -0.25236326 84
-0.36224952 -1.5905919 -0.19532226 83
-0.35939324 -1.576779 -0.13814184 87
-0.36608237 -1.6048337 -0.08398027 90
-0.36345762 -1.5920459 -0.027836585 90
-0.32050192 -1.4027596 0.37504312 11
-0.36474317 -1.5951109 0.36864081 50
-0.36767444 -1.6066395 0.31264576 43
-0.36355659 -1.5873715 0.25158197 51
-0.36336127 -1.585247 0.19471376 64
-0.36828217 -1.6054289 0.14047572 31
-0.32586613 -1.4193907 0.074069552 26
-0.36680076 -1.596414 0.027644638 91
-0.34298104 -1.4867978 -0.39832169 10
-0.36698723 -1.5895964 -0.36751691 64
-0.36661872 -1.5867366 -0.308833 92
-0.36910564 -1.5962298 -0.25314459 84
-0.36779955 -1.5893178 -0.19532226 85
-0.36601889 -1.5803676 -0.13857763 88
-0.37168205 -1.603546 -0.08398027 86
-0.37014237 -1.5956376 -0.027923848 89
-0.32539651 -1.4016323 0.37504312 12
-0.37030894 -1.5938278 0.36864081 48
-0.37328044 -1.6053462 0.31264576 45
-0.37021467 -1.5909028 0.25236326 47
-0.36889258 -1.583969 0.19471376 60
-0.37162262 -1.5944316 0.13960591 22
-0.3296845 -1.4133819 0.073808745 23
-0.37237108 -1.5951238 0.027644638 94
-0.35367921 -1.5091037 -0.40478793 7
-0.37475878 -1.5977923 -0.36976472 76
-0.37215522 -1.5854473 -0.308833 88
-0.37467527 -1.5949316 -0.25314459 87
-0.37448084 -1.5928552 -0.19593073 81
-0.37153319 -1.5790802 -0.13857763 88
-0.3772772 -1.602239 -0.08398027 88
-0.37570995 -1.5943358 -0.027923848 92
-0.33028713 -1.4004879 0.37504312 13
-0.37587017 -1.5925255 0.36864081 49
-0.38001019 -1.6088103 0.31359896 45
-0.37576571 -1.5896008 0.25236326 50
-0.37556198 -1.5875013 0.19532226 52
-0.36111981 -1.5252661 0.13351716 8
-0.33461612 -1.4122225 0.073808745 19
-0.37793681 -1.5938144 0.027644638 91
-0.35782635 -1.5031614 -0.40349469 5
-0.38033381 -1.5964743 -0.36976472 76
-0.37882552 -1.588913 -0.3097862 91
-0.38024032 -1.5936141 -0.25314459 84
-0.38003865 -1.5915384 -0.19593073 85
-0.37820062 -1.5826184 -0.13901341 86
-0.38286775 -1.6009122 -0.08398027 89
-0.38127294 -1.5930145 -0.027923848 92
-0.33517376 -1.3993264 0.37504312 14
-0.38256255 -1.5959417 0.36976472 51
-0.38562363 -1.6074741 0.31359896 50
-0.38246503 -1.5930816 0.25314459 42
-0.3822605 -1.5910062 0.19593073 50
-0.35246786 -1.46588 0.12829827 13
-0.33954364 -1.4110458 0.073808745 19
-0.38349795 -1.5924853 0.027644638 92
-0.37442002 -1.5488496 -0.41642722 6
-0.38704988 -1.5998725 -0.37088862 76
-0.38436955 -1.5875809 -0.3097862 89
-0.38696367 -1.5970767 -0.25392589 88
-0.38559186 -1.5902021 -0.19593073 83
-0.38372269 -1.5812886 -0.13901341 88
-0.38963199 -1.6044183 -0.084241085 88
-0.3880119 -1.5965319 -0.028011112 90
-0.34005627 -1.3981479 0.37504312 15
-0.38813108 -1.5945965 0.36976472 51
-0.39123243 -1.6061182 0.31359896 50
-0.38802364 -1.5917368 0.25314459 46
-0.38781181 -1.5896622 0.19593073 46
-0.34576866 -1.4162513 0.12394916 27
-0.34328192 -1.4050016 0.073547937 18
-0.38905445 -1.5911369 0.027644638 92
-0.38097551 -1.5522239 -0.4177205 6
-0.3926321 -1.5985116 -0.37088862 75
-0.38990894 -1.5862296 -0.3097862 89
-0.39253616 -1.5957162 -0.25392589 84
-0.39232665 -1.5936654 -0.19653921 84
-0.38924012 -1.5799395 -0.13901341 86
-0.39523008 -1.6030483 -0.084241085 88
-0.39358246 -1.5951679 -0.028011112 88
-0.34493464 -1.3969524 0.37504312 16
-0.39369491 -1.593232 0.36976472 56
-0.39683646 -1.6047426 0.31359896 47
-0.39357743 -1.5903727 0.25314459 44
-0.39455149 -1.593116 0.19653921 47
-0.354305 -1.42954 0.12525389 30
-0.34698218 -1.3989484 0.073287129 19
-0.39460617 -1.5897692 0.027644638 92
-0.38872671 -1.5602577 -0.42030698 11
-0.39938819 -1.6018586 -0.37201253 79
-0.39663178 -1.5896212 -0.3107394 92
-0.39810386 -1.5943363 -0.25392589 86
-0.3978872 -1.5922863 -0.19653921 82
-0.39596111 -1.5834031 -0.13944918 87
-0.40082335 -1.6016589 -0.084241085 88
-0.39914826 -1.5937843 -0.028011112 90
-0.34863463 -1.3910549 0.37374988 18
-0.4004392 -1.5965738 0.37088862 56
-0.40243563 -1.6033477 0.31359896 46
-0.3991265 -1.5889891 0.25314459 46
-0.40011007 -1.5917292 0.19653921 45
-0.36050802 -1.4331251 0.12568879 28
-0.35064432 -1.3928865 0.073026322 19
-0.4013744 -1.5932301 0.027731029 92
-0.39890656 -1.5776212 -0.42547998 18
-0.40497729 -1.6004547 -0.37201253 73
-0.4021782 -1.588227 -0.3107394 93
-0.4036667 -1.5929369 -0.25392589 83
-0.40344289 -1.5908877 -0.19653921 81
-0.4014858 -1.5820113 -0.13944918 85
-0.40764084 -1.6050897 -0.084501892 85
-0.40594056 -1.5972264 -0.028098373 89
-0.35348818 -1.3898294 0.37374988 20
-0.40600982 -1.5951662 0.37088862 53
-0.40924144 -1.6066896 0.31455213 49
-0.40589046 -1.5923717 0.25392589 47
-0.40566382 -1.5903229 0.19653921 49
-0.36550838 -1.4318581 0.12568879 24
-0.35550427 -1.391654 0.073026322 18
-0.40693337 -1.5918193 0.027731029 92
-0.40441108 -1.5762192 -0.42547998 16
-0.41177312 -1.6037503 -0.37313643 77
-0.40894115 -1.5915674 -0.31169257 91
-0.41045448 -1.5963012 -0.25470719 85
-0.41023043 -1.594276 -0.1971477 83
-0.40700564 -1.5806003 -0.13944918 88
-0.41324115 -1.603657 -0.084501892 90
-0.41151345 -1.5957997 -0.028098373 91
-0.35833743 -1.388587 0.37374988 22
-0.41279373 -1.5984565 0.37201253 54
-0.41484731 -1.6052513 0.31455213 50
-0.41144642 -1.5909452 0.25392589 47
-0.41121262 -1.5888971 0.19653921 48
-0.3717531 -1.4353954 0.12612371 39
-0.35910717 -1.3855711 0.072765514 17
-0.41248736 -1.5903891 0.027731029 92
-0.40991062 -1.5747979 -0.42547998 25
-0.41736871 -1.6023031 -0.37313643 78
-0.41449425 -1.5901302 -0.31169257 92
-0.41602412 -1.5948588 -0.25470719 84
-0.41579297 -1.5928344 -0.1971477 81
-0.41252044 -1.57917 -0.13944918 86
-0.41883644 -1.6022047 -0.084501892 87
-0.41708136 -1.5943534 -0.028098373 88
-0.36318234 -1.3873278 0.37374988 24
-0.41837087 -1.5970058 0.37201253 52
-0.42044818 -1.6037935 0.31455213 56
-0.41699734 -1.5894994 0.25392589 43
-0.41801658 -1.5922521 0.1971477 48
-0.37676132 -1.4340889 0.12612371 79
-0.36267194 -1.3794801 0.072504707 18
-0.4193083 -1.5937743 0.027817419 92
-0.41540518 -1.5733575 -0.42547998 14
-0.42267984 -1.6009103 -0.37313643 75
-0.41976506 -1.588747 -0.31169257 92
-0.42257291 -1.5982449 -0.25548851 85
-0.42107272 -1.5914468 -0.1971477 85
-0.4190298 -1.5826086 -0.13988498 87
-0.42542607 -1.6056335 -0.0847627 86
-0.42364734 -1.5977939 -0.028185636 89
-0.36778089 -1.3861158 0.37374988 22
-0.42366439 -1.5956098 0.37201253 51
-0.4257642 -1.6023903 0.31455213 59
-0.42353502 -1.5928805 0.25470719 44
-0.4232944 -1.5908573 0.1971477 46
-0.38279644 -1.437645 0.12655862 70
-0.36724445 -1.3782698 0.072504707 15
-0.42459115 -1.592375 0.027817419 91
-0.4218688 -1.576637 -0.42677325 14
-0.42952567 -1.6041316 -0.37426034 76
-0.42657858 -1.592013 -0.31264576 91
-0.42814928 -1.5967602 -0.25548851 85
-0.42662534 -1.5899673 -0.1971477 81
-0.42455161 -1.5811362 -0.13988498 86
-0.43102822 -1.6041387 -0.0847627 86
-0.42922217 -1.5963054 -0.028185636 90
-0.37261707 -1.3848236 0.37374988 24
-0.43049827 -1.5988256 0.37313643 54
-0.432632 -1.6056337 0.31550533 54
-0.42909268 -1.5913923 0.25470719 46
-0.42884493 -1.58937 0.1971477 52
-0.39040935 -1.4459178 0.12742843 24
-0.3720533 -1.3769795 0.072504707 19
-0.43145186 -1.5957092 0.027903808 89
-0.42610496 -1.5704935 -0.42547998 14
-0.43512249 -1.6026224 -0.37426034 78
-0.43213317 -1.5905142 -0.31264576 92
-0.43372041 -1.5952559 -0.25548851 86
-0.43347561 -1.5932571 -0.19775617 83
-0.43006822 -1.5796446 -0.13988498 87
-0.43662506 -1.6026243 -0.0847627 87
-0.43479165 -1.5947974 -0.028185636 90
-0.37744874 -1.3835144 0.37374988 25
-0.43607661 -1.5973132 0.37313643 54
-0.43823409 -1.6041138 0.31550533 49
-0.43464503 -1.589885 0.25470719 46
-0.43439025 -1.5878633 0.1971477 51
-0.407291 -1.4877847 0.13134262 10
-0.37685755 -1.3756723 0.072504707 16
-0.43701929 -1.5941935 0.027903808 91
-0.42902249 -1.5596826 -0.42289349 12
-0.44071403 -1.6010938 -0.37426034 81
-0.43768248 -1.5889962 -0.31264576 92
-0.44059858 -1.5984932 -0.25626981 84
-0.43903449 -1.5917343 -0.19775617 82
-0.43690485 -1.5829352 -0.14032075 86
-0.44354597 -1.6059035 -0.085023507 88
-0.44035593 -1.5932699 -0.028185636 89
-0.38227579 -1.3821884 0.37374988 27
-0.44164965 -1.5957812 0.37313643 56
-0.44514087 -1.6073045 0.31645852 47
-0.44151106 -1.5931174 0.25548851 44
-0.43993029 -1.5863374 0.1971477 54
-0.4244695 -1.5295509 0.1352568 27
-0.38432938 -1.3839709 0.073026322 16
-0.44391996 -1.5974751 0.027990198 91
-0.43446416 -1.5581756 -0.42289349 9
-0.44630024 -1.5995457 -0.37426034 81
-0.44454637 -1.5921861 -0.31359896 91
-0.44617563 -1.5969455 -0.25626981 85
-0.44458804 -1.5901921 -0.19775617 83
-0.44242761 -1.5814004 -0.14032075 84
-0.44914889 -1.6043454 -0.085023507 86
-0.44726333 -1.596537 -0.028272897 89
-0.38709822 -1.3808457 0.37374988 31
-0.44853318 -1.5989209 0.37426034 57
-0.45074868 -1.6057409 0.31645852 45
-0.44706941 -1.5915663 0.25548851 49
-0.44546494 -1.584792 0.1971477 55
-0.44464189 -1.5808047 0.14004081 34
-0.3905108 -1.3874273 0.073287129 12
-0.44949347 -1.5959157 0.027990198 93
-0.43070638 -1.5241146 -0.41384071 4
-0.45188096 -1.597978 -0.37426034 76
-0.45010144 -1.5906247 -0.31359896 93
-0.45174733 -1.5953784 -0.25626981 86
-0.45013613 -1.5886306 -0.19775617 82
-0.44930381 -1.5846386 -0.14075653 86
-0.45474637 -1.6027678 -0.085023507 85
-0.45283359 -1.5949661 -0.028272897 88
-0.39191595 -1.3794861 0.37374988 32
-0.45411175 -1.5973455 0.37426034 56
-0.45769402 -1.6088786 0.31741169 48
-0.45262229 -1.5899962 0.25548851 47
-0.45235381 -1.5880004 0.19775617 56
-0.45971528 -1.6127747 0.14308518 38
-0.39809069 -1.3956591 0.073808745 9
-0.45506153 -1.594337 0.027990198 92
-0.44799095 -1.5643909 -0.42547998 9
-0.46014038 -1.605758 -0.37650815 57
-0.45700392 -1.5937622 -0.31455213 91
-0.45731345 -1.5937917 -0.25626981 86
-0.4570483 -1.5918196 -0.19836466 83
-0.45483249 -1.5830606 -0.14075653 87
-0.46033832 -1.6011708 -0.085023507 86
-0.45839828 -1.5933756 -0.028272897 87
-0.39672884 -1.3781096 0.37374988 34
-0.46103334 -1.6004322 0.37538424 59
-0.46330726 -1.6072712 0.31741169 45
-0.45816967 -1.5884064 0.25548851 54
-0.45789421 -1.5864117 0.19775617 55
-0.46534213 -1.6111602 0.14308518 34
-0.40573275 -1.4038547 0.07433036 17
-0.46201286 -1.5975412 0.028076587 93
-0.45883247 -1.5813718 -0.43065301 17
-0.46438429 -1.5994631 -0.37538424 38
-0.46256438 -1.5921571 -0.31455213 93
-0.46425268 -1.5969278 -0.25705114 82
-0.46260199 -1.5902145 -0.19836466 83
-0.46174774 -1.5862458 -0.1411923 85
-0.46732101 -1.6043481 -0.085284315 84
-0.46535638 -1.5965654 -0.02836016 86
-0.40153694 -1.3767163 0.37374988 36
-0.46661711 -1.5988131 0.37538424 57
-0.4689149 -1.6056441 0.31741169 44
-0.46371147 -1.5867975 0.25548851 53
-0.46482193 -1.5895671 0.19836466 58
-0.47376102 -1.6190872 0.14395499 31
-0.4134368 -1.4120138 0.074851982 13
-0.46758658 -1.5959188 0.028076587 92
-0.46571168 -1.5843943 -0.43194625 23
-0.45896652 -1.5604398 -0.36639303 25
-0.46950504 -1.5952414 -0.31550533 95
-0.46982417 -1.5952976 -0.25705114 84
-0.46815011 -1.58859 -0.19836466 80
-0.467282 -1.5846242 -0.1411923 86
-0.47291839 -1.602707 -0.085284315 86
-0.47092655 -1.5949311 -0.02836016 87
-0.40634012 -1.3753064 0.37374988 36
-0.47219518 -1.5971746 0.37538424 57
-0.47590917 -1.6087042 0.31836489 43
-0.47064939 -1.5899047 0.25626981 52
-0.47036773 -1.5879349 0.19836466 60
-0.47799426 -1.6126479 0.14352009 25
-0.42120275 -1.4201362 0.075373597 15
-0.47315449 -1.5942769 0.028076587 92
-0.47123945 -1.582759 -0.43194625 18
-0.44910884 -1.5074666 -0.35403004 19
-0.47507066 -1.5935928 -0.31550533 94
-0.47680163 -1.5983803 -0.25783244 85
-0.47369245 -1.5869461 -0.19836466 81
-0.47281051 -1.5829834 -0.1411923 85
-0.47993985 -1.6058306 -0.085545123 88
-0.47792348 -1.5980673 -0.028447421 91
-0.41252303 -1.3785067 0.37504312 39
-0.47776747 -1.5955166 0.37538424 63
-0.4815217 -1.6070331 0.31836489 44
-0.47619635 -1.5882521 0.25626981 51
-0.4773339 -1.5910367 0.19897313 60
-0.48362049 -1.6109695 0.14352009 20
-0.42759392 -1.4234394 0.075634405 15
-0.48015577 -1.5974032 0.028162977 93
-0.47397271 -1.5718561 -0.42935973 16
-0.46140495 -1.5292115 -0.35964957 19
-0.48204911 -1.5966237 -0.31645852 96
-0.48237813 -1.5967062 -0.25783244 88
-0.48066512 -1.5900334 -0.19897313 81
-0.47833329 -1.5813234 -0.1411923 85
-0.48554233 -1.6041455 -0.085545123 86
-0.48349884 -1.5963894 -0.028447421 88
-0.41733241 -1.3770583 0.37504312 46
-0.48333395 -1.5938392 0.37538424 61
-0.48712835 -1.6053426 0.31836489 49
-0.48317224 -1.5913056 0.25705114 53
-0.48288473 -1.5893607 0.19897313 61
-0.48924088 -1.6092716 0.14352009 19
-0.43401322 -1.4267153 0.075895213 15
-0.4857288 -1.5957173 0.028162977 94
-0.47381464 -1.5517149 -0.42418674 14
-0.46389285 -1.5182728 -0.35740176 16
-0.4876194 -1.5949311 -0.31645852 95
-0.4893935 -1.5997354 -0.25861374 85
-0.48621243 -1.5883459 -0.19897313 81
-0.485309 -1.5844066 -0.14162809 83
-0.49113888 -1.6024408 -0.085545123 88
-0.48906833 -1.5946919 -0.028447421 87
-0.42355368 -1.3802105 0.3763364 52
-0.48889452 -1.5921423 0.37538424 62
-0.4941707 -1.6083243 0.31931809 48
-0.49017531 -1.5943298 0.25783244 48
-0.489889 -1.5924091 0.19958161 52
-0.49485531 -1.6075541 0.14352009 17
-0.43899074 -1.4251915 0.075895213 16
-0.4912959 -1.5940121 0.028162977 93
-0.47494841 -1.5362085 -0.42030698 13
-0.46774989 -1.5119898 -0.35627785 15
-0.49463519 -1.5979081 -0.31741169 95
-0.49497464 -1.5980172 -0.25861374 85
-0.49322307 -1.5913796 -0.19958161 82
-0.49083668 -1.5827029 -0.14162809 85
-0.4982093 -1.6054856 -0.08580593 86
-0.49611431 -1.5977494 -0.028534682 89
-0.4283689 -1.3787236 0.3763364 53
-0.49589553 -1.5950785 0.37650815 63
-0.50123978 -1.6112763 0.32027125 46
-0.49573758 -1.5926092 0.25783244 47
-0.49544457 -1.5906894 0.19958161 55
-0.50046372 -1.6058168 0.14352009 19
-0.44247642 -1.4188837 0.075634405 16
-0.49834621 -1.5970598 0.028249366 93
-0.47453701 -1.5161037 -0.41513398 11
-0.47156873 -1.5056986 -0.35515395 17
-0.50020993 -1.5961717 -0.31741169 96
-0.50054973 -1.5962797 -0.25861374 86
-0.49877498 -1.5896482 -0.19958161 81
-0.49785033 -1.5857322 -0.14206386 86
-0.50381047 -1.6037368 -0.08580593 87
-0.50168848 -1.5960078 -0.028534682 89
-0.43317896 -1.3772199 0.3763364 53
-0.50146043 -1.5933378 0.37650815 61
-0.50686109 -1.6095167 0.32027125 46
-0.50277805 -1.5955794 0.25861374 49
-0.50099403 -1.5889503 0.19958161 52
-0.50756466 -1.6088104 0.14395499 30
-0.44592339 -1.4125689 0.075373597 17
-0.50391799 -1.5953106 0.028249366 91
-0.47544992 -1.5006254 -0.4112542 10
-0.47387704 -1.4947548 -0.35290614 17
-0.50726265 -1.5990946 -0.31836489 96
-0.50611871 -1.5945227 -0.25861374 83
-0.50432086 -1.5878975 -0.19958161 83
-0.50338256 -1.5839847 -0.14206386 86
-0.50940543 -1.6019683 -0.08580593 86
-0.50877237 -1.5990108 -0.028621946 88
-0.43944892 -1.3803017 0.37762964 61
